# .PCD v0.7 - Point Cloud Data file format
VERSION 0.7
FIELDS x y z
SIZE 4 4 4
TYPE F F F
COUNT 1 1 1
WIDTH 2888
HEIGHT 1
VIEWPOINT 0 0 0 1 0 0 0
POINTS 2888
DATA ascii
4.25 2.25 46.75
4.75 2.25 46.75
4.25 2.75 46.75
4.75 2.75 46.75
4.75 3.25 46.25
4.75 3.75 46.25
4.75 3.25 46.75
4.75 3.75 46.75
4.25 2.25 47.25
4.75 2.25 47.25
4.25 2.75 47.25
4.75 2.75 47.25
4.25 2.25 47.75
4.75 2.25 47.75
4.25 2.75 47.75
4.75 2.75 47.75
4.75 3.25 47.25
4.75 3.75 47.25
4.75 3.25 47.75
4.75 3.75 47.75
4.75 4.25 44.25
4.25 4.75 44.25
4.75 4.75 44.25
4.75 4.25 44.75
4.25 4.75 44.75
4.75 4.75 44.75
4.25 5.25 44.25
4.25 5.75 44.25
4.25 5.25 44.75
4.25 5.75 44.75
5.75 5.75 44.25
5.75 5.75 44.75
4.75 4.25 45.25
4.25 4.75 45.25
4.75 4.75 45.25
4.75 4.25 45.75
4.25 4.75 45.75
4.75 4.75 45.75
4.25 5.25 45.25
4.25 5.75 45.25
4.25 5.25 45.75
4.25 5.75 45.75
5.75 5.75 45.25
5.75 5.75 45.75
6.25 5.75 44.25
6.75 5.75 44.25
6.25 5.75 44.75
6.75 5.75 44.75
7.25 5.75 44.25
7.75 5.75 44.25
7.25 5.75 44.75
7.75 5.75 44.75
6.25 5.75 45.25
6.75 5.75 45.25
6.25 5.75 45.75
6.75 5.75 45.75
7.25 5.75 45.25
7.75 5.75 45.25
7.25 5.75 45.75
7.75 5.75 45.75
4.75 6.25 44.25
4.75 6.25 44.75
5.25 6.25 44.25
5.75 6.25 44.25
5.25 6.25 44.75
5.75 6.25 44.75
4.75 6.25 45.25
4.75 6.25 45.75
5.25 6.25 45.25
5.75 6.25 45.25
5.25 6.25 45.75
5.75 6.25 45.75
4.75 4.25 46.25
4.25 4.75 46.25
4.75 4.75 46.25
4.75 4.25 46.75
4.25 4.75 46.75
4.75 4.75 46.75
4.25 5.25 46.25
4.25 5.75 46.25
4.25 5.25 46.75
4.25 5.75 46.75
5.75 5.75 46.25
5.75 5.75 46.75
4.75 4.25 47.25
4.25 4.75 47.25
4.75 4.75 47.25
4.75 4.25 47.75
4.25 4.75 47.75
4.75 4.75 47.75
4.25 5.25 47.25
4.25 5.75 47.25
4.25 5.25 47.75
4.25 5.75 47.75
5.75 5.75 47.25
5.75 5.75 47.75
6.25 5.75 46.25
6.75 5.75 46.25
6.25 5.75 46.75
6.75 5.75 46.75
7.25 5.75 46.25
7.75 5.75 46.25
7.25 5.75 46.75
7.75 5.75 46.75
6.25 5.75 47.25
6.75 5.75 47.25
6.25 5.75 47.75
6.75 5.75 47.75
7.25 5.75 47.25
7.75 5.75 47.25
7.25 5.75 47.75
7.75 5.75 47.75
4.75 6.25 46.25
4.75 6.25 46.75
5.25 6.25 46.25
5.75 6.25 46.25
5.25 6.25 46.75
5.75 6.25 46.75
4.75 6.25 47.25
4.75 6.25 47.75
5.25 6.25 47.25
5.75 6.25 47.25
5.25 6.25 47.75
5.75 6.25 47.75
15.75 0.25 40.25
15.75 0.75 40.25
15.75 0.25 40.75
15.75 0.75 40.75
15.75 1.25 40.25
15.75 1.75 40.25
15.75 1.25 40.75
15.75 1.75 40.75
15.75 0.25 41.25
15.75 0.75 41.25
15.75 0.25 41.75
15.75 0.75 41.75
15.75 1.25 41.25
15.75 1.75 41.25
15.75 1.25 41.75
15.75 1.75 41.75
15.75 2.25 40.25
15.75 2.75 40.25
15.75 2.25 40.75
15.75 2.75 40.75
15.75 3.25 40.25
15.75 3.75 40.25
15.75 3.25 40.75
15.75 3.75 40.75
15.75 2.25 41.25
15.75 2.75 41.25
15.75 2.25 41.75
15.75 2.75 41.75
15.75 3.25 41.25
15.75 3.75 41.25
15.75 3.25 41.75
15.75 3.75 41.75
15.75 0.25 42.25
15.75 0.75 42.25
15.75 0.25 42.75
15.75 0.75 42.75
15.75 1.25 42.25
15.75 1.75 42.25
15.75 1.25 42.75
15.75 1.75 42.75
15.75 0.25 43.25
15.75 0.75 43.25
15.75 0.25 43.75
15.75 0.75 43.75
15.75 1.25 43.25
15.75 1.75 43.25
15.75 1.25 43.75
15.75 1.75 43.75
15.75 2.25 42.25
15.75 2.75 42.25
15.75 2.25 42.75
15.75 2.75 42.75
15.75 3.25 42.25
15.75 3.75 42.25
15.75 3.25 42.75
15.75 3.75 42.75
15.75 2.25 43.25
15.75 2.75 43.25
15.75 2.25 43.75
15.75 2.75 43.75
15.75 3.25 43.25
15.75 3.75 43.25
15.75 3.25 43.75
15.75 3.75 43.75
8.25 5.75 40.25
8.75 5.75 40.25
8.25 5.75 40.75
8.75 5.75 40.75
9.25 5.75 40.25
9.75 5.75 40.25
9.25 5.75 40.75
9.75 5.75 40.75
8.25 5.75 41.25
8.75 5.75 41.25
8.25 5.75 41.75
8.75 5.75 41.75
9.25 5.75 41.25
9.75 5.75 41.25
9.25 5.75 41.75
9.75 5.75 41.75
10.25 5.75 40.25
10.75 5.75 40.25
10.25 5.75 40.75
10.75 5.75 40.75
11.25 5.75 40.25
11.75 5.75 40.25
11.25 5.75 40.75
11.75 5.75 40.75
10.25 5.75 41.25
10.75 5.75 41.25
10.25 5.75 41.75
10.75 5.75 41.75
11.25 5.75 41.25
11.75 5.75 41.25
11.25 5.75 41.75
11.75 5.75 41.75
8.25 5.75 42.25
8.75 5.75 42.25
8.25 5.75 42.75
8.75 5.75 42.75
9.25 5.75 42.25
9.75 5.75 42.25
9.25 5.75 42.75
9.75 5.75 42.75
8.25 5.75 43.25
8.75 5.75 43.25
8.25 5.75 43.75
8.75 5.75 43.75
9.25 5.75 43.25
9.75 5.75 43.25
9.25 5.75 43.75
9.75 5.75 43.75
10.25 5.75 42.25
10.75 5.75 42.25
10.25 5.75 42.75
10.75 5.75 42.75
11.25 5.75 42.25
11.75 5.75 42.25
11.25 5.75 42.75
11.75 5.75 42.75
10.25 5.75 43.25
10.75 5.75 43.25
10.25 5.75 43.75
10.75 5.75 43.75
11.25 5.75 43.25
11.75 5.75 43.25
11.25 5.75 43.75
11.75 5.75 43.75
12.25 5.25 40.25
12.75 5.25 40.25
12.25 5.75 40.25
12.75 5.75 40.25
12.25 5.25 40.75
12.75 5.25 40.75
12.25 5.75 40.75
12.75 5.75 40.75
13.25 5.25 40.25
13.75 5.25 40.25
13.25 5.25 40.75
13.75 5.25 40.75
12.25 5.25 41.25
12.75 5.25 41.25
12.25 5.75 41.25
12.75 5.75 41.25
12.25 5.25 41.75
12.75 5.25 41.75
12.25 5.75 41.75
12.75 5.75 41.75
13.25 5.25 41.25
13.75 5.25 41.25
13.25 5.25 41.75
13.75 5.25 41.75
15.75 4.25 40.25
15.75 4.25 40.75
14.25 5.25 40.25
14.75 5.25 40.25
14.25 5.25 40.75
14.75 5.25 40.75
15.25 5.25 40.25
15.25 5.75 40.25
15.75 5.75 40.25
15.25 5.25 40.75
15.25 5.75 40.75
15.75 5.75 40.75
15.75 4.25 41.25
15.75 4.25 41.75
14.25 5.25 41.25
14.75 5.25 41.25
14.25 5.25 41.75
14.75 5.25 41.75
15.25 5.25 41.25
15.25 5.75 41.25
15.75 5.75 41.25
15.25 5.25 41.75
15.25 5.75 41.75
15.75 5.75 41.75
12.25 5.25 42.25
12.75 5.25 42.25
12.25 5.75 42.25
12.75 5.75 42.25
12.25 5.25 42.75
12.75 5.25 42.75
12.25 5.75 42.75
12.75 5.75 42.75
13.25 5.25 42.25
13.75 5.25 42.25
13.25 5.25 42.75
13.75 5.25 42.75
12.25 5.25 43.25
12.75 5.25 43.25
12.25 5.75 43.25
12.75 5.75 43.25
12.25 5.25 43.75
12.75 5.25 43.75
12.25 5.75 43.75
12.75 5.75 43.75
13.25 5.25 43.25
13.75 5.25 43.25
13.25 5.25 43.75
13.75 5.25 43.75
15.75 4.25 42.25
15.75 4.25 42.75
14.25 5.25 42.25
14.75 5.25 42.25
14.75 5.75 42.25
14.25 5.25 42.75
14.75 5.25 42.75
15.25 5.25 42.25
15.25 5.75 42.25
15.75 5.75 42.25
15.25 5.25 42.75
15.25 5.75 42.75
15.75 5.75 42.75
15.75 4.25 43.25
15.75 4.25 43.75
14.25 5.25 43.25
14.75 5.25 43.25
14.25 5.25 43.75
14.75 5.25 43.75
15.25 5.25 43.25
15.25 5.75 43.25
15.75 5.75 43.25
15.25 5.25 43.75
15.25 5.75 43.75
15.75 5.75 43.75
15.75 0.25 44.25
15.75 0.75 44.25
15.75 0.25 44.75
15.75 0.75 44.75
15.75 1.25 44.25
15.75 1.75 44.25
15.75 1.25 44.75
15.75 1.75 44.75
15.75 0.25 45.25
15.75 0.75 45.25
15.75 0.25 45.75
15.75 0.75 45.75
15.75 1.25 45.25
15.75 1.75 45.25
15.75 1.25 45.75
15.75 1.75 45.75
15.75 2.25 44.25
15.75 2.75 44.25
15.75 2.25 44.75
15.75 2.75 44.75
15.75 3.25 44.25
15.75 3.75 44.25
15.75 3.25 44.75
15.75 3.75 44.75
15.75 2.25 45.25
15.75 2.75 45.25
15.75 2.25 45.75
15.75 2.75 45.75
15.75 3.25 45.25
15.75 3.75 45.25
15.75 3.25 45.75
15.75 3.75 45.75
15.75 0.25 46.25
15.75 0.75 46.25
15.75 0.25 46.75
15.75 0.75 46.75
15.75 1.25 46.25
15.75 1.75 46.25
15.75 1.25 46.75
15.75 1.75 46.75
15.75 0.25 47.25
15.75 0.75 47.25
15.75 0.25 47.75
15.75 0.75 47.75
15.75 1.25 47.25
15.75 1.75 47.25
15.75 1.25 47.75
15.75 1.75 47.75
15.75 2.25 46.25
15.75 2.75 46.25
15.75 2.25 46.75
15.75 2.75 46.75
15.75 3.25 46.25
15.75 3.75 46.25
15.75 3.25 46.75
15.75 3.75 46.75
15.75 2.25 47.25
15.75 2.75 47.25
15.75 2.25 47.75
15.75 2.75 47.75
15.75 3.25 47.25
15.75 3.75 47.25
15.75 3.25 47.75
15.75 3.75 47.75
8.25 5.75 44.25
8.75 5.75 44.25
8.25 5.75 44.75
8.75 5.75 44.75
9.25 5.75 44.25
9.75 5.75 44.25
9.25 5.75 44.75
9.75 5.75 44.75
8.25 5.75 45.25
8.75 5.75 45.25
8.25 5.75 45.75
8.75 5.75 45.75
9.25 5.75 45.25
9.75 5.75 45.25
9.25 5.75 45.75
9.75 5.75 45.75
10.25 5.75 44.25
10.75 5.75 44.25
10.25 5.75 44.75
10.75 5.75 44.75
11.25 5.75 44.25
11.75 5.75 44.25
11.25 5.75 44.75
11.75 5.75 44.75
10.25 5.75 45.25
10.75 5.75 45.25
10.25 5.75 45.75
10.75 5.75 45.75
11.75 5.25 45.25
11.25 5.75 45.25
11.75 5.75 45.25
11.25 5.75 45.75
11.75 5.75 45.75
8.25 5.75 46.25
8.75 5.75 46.25
8.25 5.75 46.75
8.75 5.75 46.75
9.25 5.75 46.25
9.75 5.75 46.25
9.25 5.75 46.75
9.75 5.75 46.75
8.25 5.75 47.25
8.75 5.75 47.25
8.25 5.75 47.75
8.75 5.75 47.75
9.25 5.75 47.25
9.75 5.75 47.25
9.25 5.75 47.75
9.75 5.75 47.75
10.25 5.75 46.25
10.75 5.75 46.25
10.25 5.75 46.75
10.75 5.75 46.75
11.25 5.75 46.25
11.75 5.75 46.25
11.25 5.75 46.75
11.75 5.75 46.75
10.25 5.75 47.25
10.75 5.75 47.25
10.25 5.75 47.75
10.75 5.75 47.75
11.25 5.75 47.25
11.75 5.75 47.25
11.25 5.75 47.75
11.75 5.75 47.75
12.25 5.25 44.25
12.75 5.25 44.25
12.25 5.75 44.25
12.75 5.75 44.25
12.25 5.25 44.75
12.75 5.25 44.75
12.25 5.75 44.75
12.75 5.75 44.75
13.25 5.25 44.25
13.75 5.25 44.25
13.25 5.25 44.75
13.75 5.25 44.75
12.25 5.25 45.25
12.75 5.25 45.25
12.25 5.75 45.25
12.75 5.75 45.25
12.25 5.25 45.75
12.75 5.25 45.75
12.25 5.75 45.75
12.75 5.75 45.75
13.25 5.25 45.25
13.75 5.25 45.25
13.25 5.25 45.75
13.75 5.25 45.75
15.75 4.25 44.25
15.75 4.25 44.75
14.25 5.25 44.25
14.75 5.25 44.25
14.75 5.75 44.25
14.25 5.25 44.75
14.75 5.25 44.75
15.25 5.25 44.25
15.25 5.75 44.25
15.75 5.75 44.25
15.25 5.25 44.75
15.25 5.75 44.75
15.75 5.75 44.75
15.75 4.25 45.25
15.75 4.25 45.75
14.25 5.25 45.25
14.75 5.25 45.25
14.75 5.75 45.25
14.25 5.25 45.75
14.75 5.25 45.75
15.25 5.25 45.25
15.25 5.75 45.25
15.75 5.75 45.25
15.25 5.25 45.75
15.25 5.75 45.75
15.75 5.75 45.75
12.25 5.25 46.25
12.75 5.25 46.25
12.25 5.75 46.25
12.75 5.75 46.25
12.25 5.25 46.75
12.75 5.25 46.75
12.25 5.75 46.75
12.75 5.75 46.75
13.25 5.25 46.25
13.75 5.25 46.25
13.25 5.25 46.75
13.75 5.25 46.75
12.25 5.25 47.25
12.75 5.25 47.25
12.25 5.75 47.25
12.75 5.75 47.25
12.25 5.25 47.75
12.75 5.25 47.75
12.25 5.75 47.75
12.75 5.75 47.75
13.25 5.25 47.25
13.75 5.25 47.25
13.25 5.25 47.75
13.75 5.25 47.75
15.75 4.25 46.25
15.75 4.25 46.75
14.25 5.25 46.25
14.75 5.25 46.25
14.25 5.25 46.75
14.75 5.25 46.75
15.25 5.25 46.25
15.25 5.75 46.25
15.75 5.75 46.25
15.25 5.25 46.75
15.25 5.75 46.75
15.75 5.75 46.75
15.75 4.25 47.25
15.75 4.25 47.75
14.25 5.25 47.25
14.75 5.25 47.25
14.25 5.25 47.75
14.75 5.25 47.75
15.25 5.25 47.25
15.25 5.75 47.25
15.75 5.75 47.25
15.25 5.25 47.75
15.25 5.75 47.75
15.75 5.75 47.75
16.25 4.25 32.25
16.25 4.75 32.25
16.75 4.75 32.25
16.25 4.25 32.75
16.25 4.75 32.75
16.75 4.75 32.75
16.25 5.25 32.25
16.75 5.25 32.25
16.25 5.75 32.25
16.25 5.25 32.75
16.75 5.25 32.75
16.25 5.75 32.75
16.25 4.25 33.25
16.25 4.75 33.25
16.75 4.75 33.25
16.25 4.25 33.75
16.25 4.75 33.75
16.75 4.75 33.75
16.25 5.25 33.25
16.75 5.25 33.25
16.25 5.75 33.25
16.25 5.25 33.75
16.75 5.25 33.75
16.25 5.75 33.75
16.25 4.25 34.25
16.25 4.75 34.25
16.75 4.75 34.25
16.25 4.25 34.75
16.25 4.75 34.75
16.75 4.75 34.75
16.25 5.25 34.25
16.75 5.25 34.25
16.25 5.75 34.25
16.25 5.25 34.75
16.75 5.25 34.75
16.25 5.75 34.75
16.25 4.25 35.25
16.25 4.75 35.25
16.75 4.75 35.25
16.25 4.25 35.75
16.25 4.75 35.75
16.75 4.75 35.75
16.25 5.25 35.25
16.75 5.25 35.25
16.25 5.75 35.25
16.25 5.25 35.75
16.75 5.25 35.75
16.25 5.75 35.75
16.25 4.25 36.25
16.25 4.75 36.25
16.75 4.75 36.25
16.25 4.25 36.75
16.25 4.75 36.75
16.75 4.75 36.75
16.25 5.25 36.25
16.75 5.25 36.25
16.25 5.75 36.25
16.25 5.25 36.75
16.75 5.25 36.75
16.25 5.75 36.75
16.25 4.25 37.25
16.25 4.75 37.25
16.75 4.75 37.25
16.25 4.25 37.75
16.25 4.75 37.75
16.75 4.75 37.75
16.25 5.25 37.25
16.75 5.25 37.25
16.25 5.75 37.25
16.25 5.25 37.75
16.75 5.25 37.75
16.25 5.75 37.75
16.25 4.25 38.25
16.25 4.75 38.25
16.75 4.75 38.25
16.25 4.25 38.75
16.25 4.75 38.75
16.75 4.75 38.75
16.25 5.25 38.25
16.75 5.25 38.25
16.25 5.75 38.25
16.25 5.25 38.75
16.75 5.25 38.75
16.25 5.75 38.75
16.25 4.25 39.25
16.25 4.75 39.25
16.75 4.75 39.25
16.25 4.25 39.75
16.25 4.75 39.75
16.75 4.75 39.75
16.25 5.25 39.25
16.75 5.25 39.25
16.25 5.75 39.25
16.25 5.25 39.75
16.75 5.25 39.75
16.25 5.75 39.75
16.25 4.25 40.25
16.25 4.75 40.25
16.75 4.75 40.25
16.25 4.25 40.75
16.25 4.75 40.75
16.75 4.75 40.75
16.25 5.25 40.25
16.75 5.25 40.25
16.25 5.75 40.25
16.25 5.25 40.75
16.75 5.25 40.75
16.25 5.75 40.75
16.25 4.25 41.25
16.25 4.75 41.25
16.75 4.75 41.25
16.25 4.25 41.75
16.25 4.75 41.75
16.75 4.75 41.75
16.25 5.25 41.25
16.75 5.25 41.25
16.25 5.75 41.25
16.25 5.25 41.75
16.75 5.25 41.75
16.25 5.75 41.75
16.25 4.25 42.25
16.25 4.75 42.25
16.75 4.75 42.25
16.25 4.25 42.75
16.25 4.75 42.75
16.75 4.75 42.75
16.25 5.25 42.25
16.75 5.25 42.25
16.25 5.75 42.25
16.25 5.25 42.75
16.75 5.25 42.75
16.25 5.75 42.75
16.25 4.25 43.25
16.25 4.75 43.25
16.75 4.75 43.25
16.25 4.25 43.75
16.25 4.75 43.75
16.75 4.75 43.75
16.25 5.25 43.25
16.75 5.25 43.25
16.25 5.75 43.25
16.25 5.25 43.75
16.75 5.25 43.75
16.25 5.75 43.75
16.25 4.25 44.25
16.25 4.75 44.25
16.75 4.75 44.25
16.25 4.25 44.75
16.25 4.75 44.75
16.75 4.75 44.75
16.25 5.25 44.25
16.75 5.25 44.25
16.25 5.75 44.25
16.25 5.25 44.75
16.75 5.25 44.75
16.25 5.75 44.75
16.25 4.25 45.25
16.25 4.75 45.25
16.75 4.75 45.25
16.25 4.25 45.75
16.25 4.75 45.75
16.75 4.75 45.75
16.25 5.25 45.25
16.75 5.25 45.25
16.25 5.75 45.25
16.25 5.25 45.75
16.75 5.25 45.75
16.25 5.75 45.75
16.25 4.25 46.25
16.25 4.75 46.25
16.75 4.75 46.25
16.25 4.25 46.75
16.25 4.75 46.75
16.75 4.75 46.75
16.25 5.25 46.25
16.75 5.25 46.25
16.25 5.75 46.25
16.25 5.25 46.75
16.75 5.25 46.75
16.25 5.75 46.75
16.25 4.25 47.25
16.25 4.75 47.25
16.75 4.75 47.25
16.25 4.25 47.75
16.25 4.75 47.75
16.75 4.75 47.75
16.25 5.25 47.25
16.75 5.25 47.25
16.25 5.75 47.25
16.25 5.25 47.75
16.75 5.25 47.75
16.25 5.75 47.75
3.75 0.25 50.25
3.75 0.75 50.25
3.75 0.25 50.75
3.75 0.75 50.75
3.75 1.25 50.25
3.75 1.75 50.25
3.75 1.25 50.75
3.75 1.75 50.75
3.75 0.25 51.25
3.75 0.75 51.25
3.75 0.25 51.75
3.75 0.75 51.75
3.75 1.25 51.25
3.75 1.75 51.25
3.75 1.25 51.75
3.75 1.75 51.75
3.75 2.25 50.25
3.75 2.75 50.25
3.75 2.25 50.75
3.75 2.75 50.75
3.75 3.25 50.25
3.75 3.75 50.25
3.75 3.25 50.75
3.75 3.75 50.75
3.75 2.25 51.25
3.75 2.75 51.25
3.75 2.25 51.75
3.75 2.75 51.75
3.75 3.25 51.25
3.75 3.75 51.25
3.75 3.25 51.75
3.75 3.75 51.75
4.25 0.25 48.25
4.25 0.75 48.25
4.25 0.25 48.75
4.25 0.75 48.75
4.25 1.25 48.25
4.25 1.75 48.25
4.75 1.75 48.25
4.25 1.25 48.75
4.75 1.25 48.75
4.25 1.75 48.75
4.75 1.75 48.75
4.25 0.25 49.25
4.25 0.75 49.25
4.25 0.25 49.75
4.25 0.75 49.75
4.25 1.25 49.25
4.75 1.25 49.25
4.25 1.75 49.25
4.75 1.75 49.25
4.25 1.25 49.75
4.25 1.75 49.75
4.75 1.75 49.75
4.25 2.25 48.25
4.75 2.25 48.25
4.25 2.75 48.25
4.75 2.75 48.25
4.25 2.25 48.75
4.75 2.25 48.75
4.25 2.75 48.75
4.75 2.75 48.75
4.75 3.25 48.25
4.75 3.75 48.25
4.75 3.25 48.75
4.75 3.75 48.75
4.25 2.25 49.25
4.75 2.25 49.25
4.25 2.75 49.25
4.75 2.75 49.25
4.25 2.25 49.75
4.75 2.25 49.75
4.25 2.75 49.75
4.75 2.75 49.75
4.75 3.25 49.25
4.75 3.75 49.25
4.75 3.25 49.75
4.75 3.75 49.75
4.25 0.25 50.25
4.25 0.75 50.25
4.25 1.25 50.25
4.75 1.25 50.25
4.25 1.75 50.25
4.75 1.75 50.25
4.25 2.25 50.25
4.75 2.25 50.25
4.25 2.75 50.25
4.75 2.75 50.25
4.75 3.25 50.25
4.25 3.75 50.25
4.75 3.75 50.25
3.75 4.25 50.25
3.75 4.75 50.25
3.75 4.25 50.75
3.75 4.75 50.75
3.75 5.25 50.25
3.75 5.75 50.25
3.75 5.25 50.75
3.75 5.75 50.75
3.75 4.25 51.25
3.75 4.75 51.25
3.75 4.25 51.75
3.75 4.75 51.75
3.75 5.25 51.25
3.75 5.75 51.25
3.75 5.25 51.75
3.75 5.75 51.75
3.75 6.25 50.25
3.75 6.75 50.25
3.75 6.25 50.75
3.75 6.75 50.75
3.75 6.25 51.25
3.75 6.75 51.25
3.75 6.25 51.75
3.75 6.75 51.75
4.75 4.25 48.25
4.25 4.75 48.25
4.75 4.75 48.25
4.75 4.25 48.75
4.25 4.75 48.75
4.75 4.75 48.75
4.25 5.25 48.25
4.25 5.75 48.25
4.25 5.25 48.75
4.25 5.75 48.75
5.75 5.75 48.25
5.75 5.75 48.75
4.75 4.25 49.25
4.25 4.75 49.25
4.75 4.75 49.25
4.75 4.25 49.75
4.25 4.75 49.75
4.75 4.75 49.75
4.25 5.25 49.25
4.25 5.75 49.25
4.25 5.25 49.75
4.25 5.75 49.75
5.75 5.75 49.25
5.75 5.75 49.75
6.25 5.75 48.25
6.75 5.75 48.25
6.25 5.75 48.75
6.75 5.75 48.75
7.25 5.75 48.25
7.75 5.75 48.25
7.25 5.75 48.75
7.75 5.75 48.75
6.25 5.75 49.25
6.75 5.75 49.25
6.25 5.75 49.75
6.75 5.75 49.75
7.25 5.75 49.25
7.75 5.75 49.25
7.25 5.75 49.75
7.75 5.75 49.75
4.75 6.25 48.25
4.75 6.25 48.75
5.25 6.25 48.25
5.75 6.25 48.25
5.25 6.25 48.75
5.75 6.25 48.75
4.75 6.25 49.25
4.75 6.25 49.75
5.25 6.25 49.25
5.75 6.25 49.25
5.25 6.25 49.75
5.75 6.25 49.75
4.75 4.25 50.25
4.25 4.75 50.25
4.75 4.75 50.25
4.25 5.25 50.25
4.25 5.75 50.25
5.75 5.75 50.25
6.25 5.75 50.25
6.75 5.75 50.25
7.25 5.75 50.25
7.75 5.75 50.25
4.25 6.25 50.25
4.75 6.25 50.25
4.25 6.75 50.25
4.75 6.75 50.25
4.25 6.75 50.75
4.75 6.75 50.75
5.25 6.25 50.25
5.75 6.25 50.25
5.25 6.75 50.25
5.75 6.75 50.25
5.25 6.75 50.75
5.75 6.75 50.75
4.25 6.75 51.25
4.75 6.75 51.25
4.25 6.75 51.75
4.75 6.75 51.75
5.25 6.75 51.25
5.75 6.75 51.25
5.25 6.75 51.75
5.75 6.75 51.75
6.25 6.75 50.25
6.75 6.75 50.25
6.25 6.75 50.75
6.75 6.75 50.75
7.25 6.25 50.25
7.75 6.25 50.25
7.25 6.75 50.25
7.75 6.75 50.25
7.25 6.25 50.75
7.75 6.25 50.75
7.25 6.75 50.75
7.75 6.75 50.75
6.25 6.75 51.25
6.75 6.75 51.25
6.25 6.75 51.75
6.75 6.75 51.75
7.5 6.5 51.5
3.75 0.25 52.25
3.75 0.75 52.25
3.75 0.25 52.75
3.75 0.75 52.75
3.75 1.25 52.25
3.75 1.75 52.25
3.75 1.25 52.75
3.75 1.75 52.75
3.25 0.25 53.25
3.75 0.25 53.25
3.25 0.75 53.25
3.75 0.75 53.25
3.25 0.25 53.75
3.25 0.75 53.75
3.25 1.25 53.25
3.75 1.25 53.25
3.25 1.75 53.25
3.75 1.75 53.25
3.25 1.25 53.75
3.25 1.75 53.75
3.75 2.25 52.25
3.75 2.75 52.25
3.75 2.25 52.75
3.75 2.75 52.75
3.75 3.25 52.25
3.75 3.75 52.25
3.75 3.25 52.75
3.75 3.75 52.75
3.25 2.25 53.25
3.75 2.25 53.25
3.25 2.75 53.25
3.75 2.75 53.25
3.25 2.25 53.75
3.25 2.75 53.75
3.25 3.25 53.25
3.75 3.25 53.25
3.25 3.75 53.25
3.75 3.75 53.25
3.25 3.25 53.75
3.75 3.25 53.75
3.25 3.75 53.75
3.75 3.75 53.75
3.25 0.25 54.25
3.75 0.25 54.25
3.25 0.75 54.25
3.75 0.75 54.25
3.75 0.25 54.75
3.75 0.75 54.75
3.25 1.25 54.25
3.75 1.25 54.25
3.25 1.75 54.25
3.25 1.25 54.75
3.75 1.25 54.75
3.25 1.75 54.75
3.75 1.75 54.75
3.75 0.25 55.25
3.75 0.75 55.25
3.75 0.25 55.75
3.75 0.75 55.75
3.75 1.25 55.25
3.75 1.75 55.25
3.75 1.25 55.75
3.75 1.75 55.75
3.25 2.25 54.25
3.25 2.75 54.25
3.25 2.25 54.75
3.75 2.25 54.75
3.25 2.75 54.75
3.25 3.25 54.25
3.75 3.25 54.25
3.25 3.75 54.25
3.75 3.75 54.25
3.25 3.25 54.75
3.75 3.25 54.75
3.25 3.75 54.75
3.75 3.75 54.75
3.25 2.25 55.25
3.75 2.25 55.25
3.25 2.75 55.25
3.75 2.75 55.25
3.75 2.25 55.75
3.25 2.75 55.75
3.75 2.75 55.75
3.25 3.25 55.25
3.75 3.25 55.25
3.25 3.75 55.25
3.75 3.75 55.25
3.25 3.25 55.75
3.75 3.25 55.75
3.25 3.75 55.75
3.75 3.75 55.75
3.75 4.25 52.25
3.75 4.75 52.25
3.75 4.25 52.75
3.75 4.75 52.75
3.75 5.25 52.25
3.75 5.75 52.25
3.75 5.25 52.75
3.75 5.75 52.75
3.75 4.25 53.25
3.75 4.75 53.25
3.75 4.25 53.75
3.75 4.75 53.75
3.75 5.25 53.25
3.75 5.75 53.25
3.75 5.25 53.75
3.75 5.75 53.75
3.75 6.25 52.25
3.75 6.75 52.25
3.75 6.25 52.75
3.75 6.75 52.75
3.75 6.25 53.25
3.75 6.75 53.25
3.75 6.25 53.75
3.75 6.75 53.75
3.75 4.25 54.25
3.75 4.75 54.25
3.75 4.25 54.75
3.75 4.75 54.75
3.75 5.25 54.25
3.75 5.75 54.25
3.75 5.25 54.75
3.75 5.75 54.75
3.75 4.25 55.25
3.75 4.75 55.25
3.75 4.25 55.75
3.75 4.75 55.75
3.75 5.25 55.25
3.75 5.75 55.25
3.75 5.25 55.75
3.75 5.75 55.75
3.75 6.25 54.25
3.75 6.75 54.25
3.75 6.25 54.75
3.75 6.75 54.75
3.75 6.25 55.25
3.75 6.75 55.25
3.75 6.25 55.75
3.75 6.75 55.75
4.25 6.75 52.25
4.75 6.75 52.25
4.25 6.75 52.75
4.75 6.75 52.75
5.25 6.75 52.25
5.75 6.75 52.25
5.25 6.75 52.75
5.75 6.75 52.75
4.25 6.75 53.25
4.75 6.75 53.25
4.25 6.75 53.75
4.75 6.75 53.75
5.25 6.75 53.25
5.75 6.75 53.25
5.25 6.75 53.75
5.75 6.75 53.75
6.25 6.75 52.25
6.75 6.75 52.25
6.25 6.75 52.75
6.75 6.75 52.75
7.25 6.25 52.25
7.75 6.25 52.25
7.25 6.75 52.25
7.75 6.75 52.25
7.25 6.25 52.75
7.75 6.25 52.75
7.25 6.75 52.75
7.75 6.75 52.75
6.25 6.75 53.25
6.75 6.75 53.25
6.25 6.75 53.75
6.75 6.75 53.75
7.25 6.25 53.25
7.75 6.25 53.25
7.25 6.75 53.25
7.75 6.75 53.25
7.25 6.75 53.75
7.75 6.75 53.75
4.25 6.75 54.25
4.75 6.75 54.25
4.25 6.75 54.75
4.75 6.75 54.75
5.25 6.75 54.25
5.75 6.75 54.25
5.25 6.75 54.75
5.75 6.75 54.75
4.25 6.75 55.25
4.75 6.75 55.25
4.25 6.75 55.75
4.75 6.75 55.75
5.25 6.75 55.25
5.75 6.75 55.25
5.25 6.75 55.75
5.75 6.75 55.75
6.25 6.75 54.25
6.75 6.75 54.25
6.25 6.75 54.75
6.75 6.75 54.75
7.25 6.75 54.25
7.75 6.75 54.25
7.25 6.75 54.75
7.75 6.75 54.75
6.25 6.75 55.25
6.75 6.75 55.25
6.25 6.75 55.75
6.75 6.75 55.75
7.75 6.25 55.25
7.25 6.75 55.25
7.75 6.75 55.25
7.25 6.25 55.75
7.75 6.25 55.75
7.25 6.75 55.75
7.75 6.75 55.75
15.75 0.25 48.25
15.75 0.75 48.25
15.75 0.25 48.75
15.75 0.75 48.75
15.75 1.25 48.25
15.75 1.75 48.25
15.75 1.25 48.75
15.75 1.75 48.75
15.75 0.25 49.25
15.75 0.75 49.25
15.75 0.25 49.75
15.75 0.75 49.75
15.75 1.25 49.25
15.75 1.75 49.25
15.75 1.25 49.75
15.75 1.75 49.75
15.75 2.25 48.25
15.75 2.75 48.25
15.75 2.25 48.75
15.75 2.75 48.75
15.75 3.25 48.25
15.75 3.75 48.25
15.75 3.25 48.75
15.75 3.75 48.75
15.75 2.25 49.25
15.75 2.75 49.25
15.75 2.25 49.75
15.75 2.75 49.75
15.75 3.25 49.25
15.75 3.75 49.25
15.75 3.25 49.75
15.75 3.75 49.75
15.75 0.25 50.25
15.75 0.75 50.25
15.75 1.25 50.25
15.75 1.75 50.25
15.75 2.25 50.25
15.75 2.75 50.25
15.75 3.25 50.25
15.75 3.75 50.25
8.25 5.75 48.25
8.75 5.75 48.25
8.25 5.75 48.75
8.75 5.75 48.75
9.25 5.75 48.25
9.75 5.75 48.25
9.25 5.75 48.75
9.75 5.75 48.75
8.25 5.75 49.25
8.75 5.75 49.25
8.25 5.75 49.75
8.75 5.75 49.75
9.25 5.75 49.25
9.75 5.75 49.25
9.25 5.75 49.75
9.75 5.75 49.75
10.25 5.75 48.25
10.75 5.75 48.25
10.25 5.75 48.75
10.75 5.75 48.75
11.25 5.75 48.25
11.75 5.75 48.25
11.25 5.75 48.75
11.75 5.75 48.75
10.25 5.75 49.25
10.75 5.75 49.25
10.25 5.75 49.75
10.75 5.75 49.75
11.25 5.75 49.25
11.75 5.75 49.25
11.25 5.75 49.75
11.75 5.75 49.75
8.25 5.75 50.25
8.75 5.75 50.25
9.25 5.75 50.25
9.75 5.75 50.25
10.25 5.75 50.25
10.75 5.75 50.25
11.25 5.75 50.25
11.75 5.75 50.25
8.25 6.25 50.25
8.75 6.25 50.25
8.25 6.25 50.75
8.75 6.25 50.75
9.25 6.25 50.25
9.75 6.25 50.25
9.25 6.25 50.75
9.75 6.25 50.75
8.25 6.25 51.25
8.75 6.25 51.25
8.25 6.25 51.75
8.75 6.25 51.75
9.25 6.25 51.25
9.75 6.25 51.25
9.25 6.25 51.75
9.75 6.25 51.75
10.25 6.25 50.25
10.75 6.25 50.25
10.25 6.25 50.75
10.75 6.25 50.75
11.25 6.25 50.25
11.75 6.25 50.25
11.25 6.25 50.75
11.75 6.25 50.75
10.25 6.25 51.25
10.75 6.25 51.25
10.25 6.25 51.75
10.75 6.25 51.75
11.25 6.25 51.25
11.75 6.25 51.25
11.25 6.25 51.75
11.75 6.25 51.75
12.25 5.25 48.25
12.75 5.25 48.25
12.25 5.75 48.25
12.75 5.75 48.25
12.25 5.25 48.75
12.75 5.25 48.75
12.25 5.75 48.75
12.75 5.75 48.75
13.25 5.25 48.25
13.75 5.25 48.25
13.25 5.25 48.75
13.75 5.25 48.75
12.25 5.25 49.25
12.75 5.25 49.25
12.25 5.75 49.25
12.75 5.75 49.25
12.25 5.25 49.75
12.75 5.25 49.75
12.25 5.75 49.75
12.75 5.75 49.75
13.25 5.25 49.25
13.75 5.25 49.25
13.25 5.25 49.75
13.75 5.25 49.75
15.75 4.25 48.25
15.75 4.25 48.75
14.25 5.25 48.25
14.75 5.25 48.25
14.25 5.25 48.75
14.75 5.25 48.75
15.25 5.25 48.25
15.25 5.75 48.25
15.75 5.75 48.25
15.25 5.25 48.75
15.25 5.75 48.75
15.75 5.75 48.75
15.75 4.25 49.25
15.75 4.25 49.75
14.25 5.25 49.25
14.75 5.25 49.25
14.25 5.25 49.75
14.75 5.25 49.75
15.25 5.25 49.25
15.25 5.75 49.25
15.75 5.75 49.25
15.25 5.25 49.75
15.25 5.75 49.75
15.75 5.75 49.75
12.25 5.25 50.25
12.75 5.25 50.25
12.25 5.75 50.25
12.75 5.75 50.25
13.25 5.25 50.25
13.75 5.25 50.25
15.75 4.25 50.25
14.25 5.25 50.25
14.75 5.25 50.25
15.25 5.25 50.25
15.25 5.75 50.25
15.75 5.75 50.25
12.25 6.25 50.25
12.75 6.25 50.25
12.25 6.25 50.75
12.75 6.25 50.75
13.25 6.25 50.25
13.75 6.25 50.25
13.25 6.25 50.75
13.75 6.25 50.75
12.25 6.25 51.25
12.75 6.25 51.25
12.25 6.25 51.75
12.75 6.25 51.75
13.25 6.25 51.25
13.75 6.25 51.25
13.25 6.25 51.75
13.75 6.25 51.75
14.25 6.25 50.25
14.75 6.25 50.25
14.25 6.25 50.75
14.75 6.25 50.75
15.25 6.25 50.25
15.75 6.25 50.25
15.25 6.25 50.75
15.75 6.25 50.75
14.25 6.25 51.25
14.75 6.25 51.25
14.25 6.25 51.75
14.75 6.25 51.75
15.25 6.25 51.25
15.75 6.25 51.25
15.25 6.25 51.75
15.75 6.25 51.75
8.25 6.25 52.25
8.75 6.25 52.25
8.25 6.25 52.75
8.75 6.25 52.75
9.25 6.25 52.25
9.75 6.25 52.25
9.25 6.25 52.75
9.75 6.25 52.75
8.25 6.25 53.25
8.75 6.25 53.25
8.25 6.75 53.25
8.75 6.75 53.25
8.25 6.75 53.75
8.75 6.75 53.75
9.25 6.25 53.25
9.75 6.25 53.25
9.25 6.75 53.25
9.75 6.75 53.25
9.25 6.75 53.75
9.75 6.75 53.75
10.25 6.25 52.25
10.75 6.25 52.25
10.25 6.25 52.75
10.75 6.25 52.75
11.25 6.25 52.25
11.75 6.25 52.25
11.25 6.25 52.75
11.75 6.25 52.75
10.25 6.25 53.25
10.75 6.25 53.25
10.25 6.75 53.25
10.75 6.75 53.25
10.25 6.75 53.75
10.75 6.75 53.75
11.25 6.25 53.25
11.75 6.25 53.25
11.25 6.75 53.25
11.75 6.75 53.25
11.25 6.75 53.75
11.75 6.75 53.75
8.25 6.75 54.25
8.75 6.75 54.25
8.25 6.25 54.75
8.75 6.25 54.75
8.25 6.75 54.75
8.75 6.75 54.75
9.25 6.25 54.25
9.75 6.25 54.25
9.25 6.75 54.25
9.75 6.75 54.25
9.25 6.25 54.75
9.75 6.25 54.75
9.25 6.75 54.75
8.25 6.25 55.25
8.75 6.25 55.25
8.25 6.75 55.25
8.25 6.25 55.75
8.75 6.25 55.75
9.25 6.25 55.25
9.75 6.25 55.25
9.25 6.25 55.75
9.75 6.25 55.75
10.25 6.25 54.25
10.75 6.25 54.25
10.25 6.75 54.25
10.75 6.75 54.25
10.25 6.25 54.75
10.75 6.25 54.75
11.25 6.25 54.25
11.25 6.75 54.25
11.75 6.75 54.25
11.25 6.25 54.75
11.75 6.25 54.75
11.25 6.75 54.75
11.75 6.75 54.75
10.25 6.25 55.25
10.75 6.25 55.25
10.25 6.25 55.75
10.75 6.25 55.75
11.25 6.25 55.25
11.75 6.25 55.25
11.25 6.25 55.75
11.75 6.25 55.75
12.25 6.25 52.25
12.75 6.25 52.25
12.25 6.25 52.75
12.75 6.25 52.75
13.25 6.25 52.25
13.75 6.25 52.25
13.25 6.25 52.75
13.75 6.25 52.75
12.25 6.25 53.25
12.75 6.25 53.25
12.25 6.75 53.25
12.75 6.75 53.25
12.25 6.75 53.75
12.75 6.75 53.75
13.5 6.5 53.5
14.25 6.25 52.25
14.75 6.25 52.25
14.25 6.25 52.75
14.75 6.25 52.75
15.25 6.25 52.25
15.75 6.25 52.25
15.25 6.25 52.75
15.75 6.25 52.75
14.25 6.25 53.25
14.75 6.25 53.25
14.25 6.75 53.25
14.25 6.25 53.75
14.75 6.25 53.75
14.25 6.75 53.75
15.25 6.25 53.25
15.75 6.25 53.25
15.25 6.25 53.75
15.75 6.25 53.75
12.25 6.75 54.25
12.75 6.75 54.25
12.25 6.25 54.75
12.25 6.75 54.75
12.75 6.75 54.75
13.5 6.5 54.5
12.25 6.25 55.25
12.75 6.25 55.25
12.25 6.75 55.25
12.75 6.75 55.25
12.25 6.25 55.75
12.75 6.25 55.75
12.75 6.75 55.75
13.5 6.5 55.5
14.25 6.25 54.25
14.75 6.25 54.25
14.25 6.75 54.25
14.25 6.25 54.75
14.75 6.25 54.75
14.25 6.75 54.75
15.25 6.25 54.25
15.75 6.25 54.25
15.25 6.25 54.75
15.75 6.25 54.75
14.25 6.25 55.25
14.75 6.25 55.25
14.25 6.75 55.25
14.25 6.25 55.75
14.75 6.25 55.75
14.25 6.75 55.75
15.25 6.25 55.25
15.75 6.25 55.25
15.25 6.25 55.75
15.75 6.25 55.75
3.75 0.25 56.25
3.75 0.75 56.25
3.75 0.25 56.75
3.75 0.75 56.75
3.75 1.25 56.25
3.75 1.75 56.25
3.75 1.25 56.75
3.75 1.75 56.75
3.75 0.25 57.25
3.75 0.75 57.25
3.75 0.25 57.75
3.75 0.75 57.75
3.75 1.25 57.25
3.75 1.75 57.25
3.75 1.25 57.75
3.75 1.75 57.75
3.75 2.25 56.25
3.75 2.75 56.25
3.75 2.25 56.75
3.75 2.75 56.75
3.25 3.25 56.25
3.75 3.25 56.25
3.25 3.75 56.25
3.75 3.75 56.25
3.75 3.25 56.75
3.25 3.75 56.75
3.75 3.75 56.75
3.75 2.25 57.25
3.75 2.75 57.25
3.75 2.25 57.75
3.75 2.75 57.75
3.75 3.25 57.25
3.25 3.75 57.25
3.75 3.75 57.25
3.75 3.25 57.75
3.75 3.75 57.75
3.75 0.25 58.25
3.75 0.75 58.25
3.75 0.25 58.75
3.75 0.75 58.75
3.75 1.25 58.25
3.75 1.75 58.25
3.75 1.25 58.75
3.75 1.75 58.75
3.75 0.25 59.25
3.75 0.75 59.25
3.75 0.25 59.75
3.75 0.75 59.75
3.75 1.25 59.25
3.75 1.75 59.25
3.75 1.25 59.75
3.75 1.75 59.75
3.75 2.25 58.25
3.75 2.75 58.25
3.75 2.25 58.75
3.75 2.75 58.75
3.75 3.25 58.25
3.75 3.75 58.25
3.75 3.25 58.75
3.75 3.75 58.75
3.75 2.25 59.25
3.75 2.75 59.25
3.75 2.25 59.75
3.75 2.75 59.75
3.75 3.25 59.25
3.75 3.75 59.25
3.75 3.25 59.75
3.25 3.75 59.75
3.75 3.75 59.75
4.25 2.75 59.75
4.25 3.75 59.25
4.25 3.25 59.75
4.25 3.75 59.75
3.75 4.25 56.25
3.75 4.75 56.25
3.75 4.25 56.75
3.75 4.75 56.75
3.75 5.25 56.25
3.75 5.75 56.25
3.75 5.25 56.75
3.75 5.75 56.75
3.75 4.25 57.25
3.75 4.75 57.25
3.75 4.25 57.75
3.75 4.75 57.75
3.75 5.25 57.25
3.75 5.75 57.25
3.75 5.25 57.75
3.75 5.75 57.75
3.75 6.25 56.25
3.75 6.75 56.25
3.75 6.25 56.75
3.75 6.75 56.75
3.75 6.25 57.25
3.75 6.75 57.25
3.75 6.25 57.75
3.75 6.75 57.75
3.75 4.25 58.25
3.75 4.75 58.25
3.75 4.25 58.75
3.75 4.75 58.75
3.75 5.25 58.25
3.75 5.75 58.25
3.75 5.25 58.75
3.75 5.75 58.75
3.75 4.25 59.25
3.75 4.75 59.25
3.25 4.25 59.75
3.75 4.25 59.75
3.75 4.75 59.75
3.75 5.25 59.25
3.75 5.75 59.25
3.75 5.25 59.75
3.75 5.75 59.75
3.75 6.25 58.25
3.75 6.75 58.25
3.75 6.25 58.75
3.75 6.75 58.75
3.75 6.25 59.25
3.75 6.75 59.25
3.75 6.25 59.75
3.75 6.75 59.75
4.25 6.75 56.25
4.75 6.75 56.25
4.25 6.75 56.75
4.75 6.75 56.75
5.25 6.75 56.25
5.75 6.75 56.25
5.25 6.75 56.75
5.75 6.75 56.75
4.25 6.75 57.25
4.75 6.75 57.25
4.25 6.75 57.75
4.75 6.75 57.75
5.25 6.75 57.25
5.75 6.75 57.25
5.25 6.75 57.75
5.75 6.75 57.75
6.25 6.75 56.25
6.75 6.75 56.25
6.75 6.25 56.75
6.25 6.75 56.75
6.75 6.75 56.75
7.25 6.25 56.25
7.75 6.25 56.25
7.25 6.75 56.25
7.75 6.75 56.25
7.25 6.25 56.75
7.75 6.25 56.75
7.25 6.75 56.75
7.75 6.75 56.75
6.75 6.25 57.25
6.25 6.75 57.25
6.75 6.75 57.25
6.75 6.25 57.75
6.25 6.75 57.75
6.75 6.75 57.75
7.25 6.25 57.25
7.75 6.25 57.25
7.25 6.75 57.25
7.75 6.75 57.25
7.25 6.25 57.75
7.75 6.25 57.75
7.25 6.75 57.75
7.75 6.75 57.75
4.25 5.75 58.25
4.25 5.75 58.75
4.25 5.25 59.25
4.25 5.75 59.25
4.25 5.25 59.75
4.25 5.75 59.75
4.25 6.25 58.25
4.25 6.75 58.25
4.75 6.75 58.25
4.25 6.25 58.75
4.25 6.75 58.75
4.75 6.75 58.75
5.25 6.75 58.25
5.75 6.75 58.25
5.25 6.75 58.75
5.75 6.75 58.75
4.25 6.25 59.25
4.25 6.75 59.25
4.75 6.75 59.25
4.25 6.25 59.75
4.25 6.75 59.75
4.75 6.75 59.75
5.25 6.75 59.25
5.75 6.75 59.25
5.25 6.75 59.75
5.75 6.75 59.75
6.75 6.25 58.25
6.25 6.75 58.25
6.75 6.75 58.25
6.25 6.75 58.75
6.75 6.75 58.75
7.25 6.25 58.25
7.75 6.25 58.25
7.25 6.75 58.25
7.75 6.75 58.25
7.25 6.25 58.75
7.75 6.25 58.75
7.25 6.75 58.75
7.75 6.75 58.75
6.75 6.25 59.25
6.25 6.75 59.25
6.75 6.75 59.25
6.25 6.75 59.75
6.75 6.75 59.75
7.25 6.25 59.25
7.75 6.25 59.25
7.25 6.75 59.25
7.75 6.75 59.25
7.25 6.25 59.75
7.75 6.25 59.75
7.25 6.75 59.75
7.75 6.75 59.75
3.75 0.25 60.25
3.75 0.75 60.25
3.75 0.25 60.75
3.75 0.75 60.75
3.75 1.25 60.25
3.75 1.75 60.25
3.75 1.25 60.75
3.75 1.75 60.75
3.75 0.25 61.25
3.75 0.75 61.25
3.75 0.25 61.75
3.75 0.75 61.75
3.75 1.25 61.25
3.75 1.75 61.25
3.75 1.25 61.75
3.75 1.75 61.75
3.75 2.25 60.25
3.75 2.75 60.25
3.75 2.25 60.75
3.75 2.75 60.75
3.25 3.25 60.25
3.75 3.25 60.25
3.25 3.75 60.25
3.75 3.75 60.25
3.25 3.25 60.75
3.75 3.25 60.75
3.25 3.75 60.75
3.75 3.75 60.75
3.75 2.25 61.25
3.25 2.75 61.25
3.75 2.75 61.25
3.25 2.25 61.75
3.75 2.25 61.75
3.25 2.75 61.75
3.75 2.75 61.75
3.25 3.25 61.25
3.75 3.25 61.25
3.25 3.75 61.25
3.75 3.75 61.25
3.25 3.25 61.75
3.75 3.25 61.75
3.25 3.75 61.75
3.75 3.75 61.75
3.75 0.25 62.25
3.25 0.75 62.25
3.75 0.75 62.25
3.25 0.25 62.75
3.75 0.25 62.75
3.25 0.75 62.75
3.75 0.75 62.75
3.25 1.25 62.25
3.75 1.25 62.25
3.25 1.75 62.25
3.75 1.75 62.25
3.25 1.25 62.75
3.25 1.75 62.75
3.75 1.75 62.75
3.25 0.25 63.25
3.25 0.75 63.25
3.25 0.25 63.75
3.25 0.75 63.75
3.25 1.25 63.25
3.25 1.75 63.25
3.25 1.25 63.75
3.25 1.75 63.75
3.25 2.25 62.25
3.75 2.25 62.25
3.25 2.75 62.25
3.75 2.75 62.25
3.25 2.25 62.75
3.75 2.25 62.75
3.25 2.75 62.75
3.75 2.75 62.75
3.25 3.25 62.25
3.75 3.25 62.25
3.25 3.75 62.25
3.75 3.75 62.25
3.25 3.25 62.75
3.75 3.25 62.75
3.25 3.75 62.75
3.75 3.75 62.75
3.25 2.25 63.25
3.75 2.25 63.25
3.25 2.75 63.25
3.75 2.75 63.25
3.25 2.25 63.75
3.75 2.25 63.75
3.25 2.75 63.75
3.75 2.75 63.75
3.25 3.25 63.25
3.75 3.25 63.25
3.25 3.75 63.25
3.75 3.75 63.25
3.25 3.25 63.75
3.75 3.25 63.75
3.25 3.75 63.75
3.75 3.75 63.75
3.25 4.25 60.25
3.75 4.25 60.25
3.25 4.75 60.25
3.75 4.75 60.25
3.25 4.25 60.75
3.75 4.25 60.75
3.25 4.75 60.75
3.75 4.75 60.75
3.75 5.25 60.25
3.75 5.75 60.25
3.75 5.25 60.75
3.75 5.75 60.75
3.25 4.25 61.25
3.75 4.25 61.25
3.75 4.75 61.25
3.25 4.25 61.75
3.75 4.25 61.75
3.75 4.75 61.75
3.75 5.25 61.25
3.75 5.75 61.25
3.75 5.25 61.75
3.75 5.75 61.75
3.75 6.25 60.25
3.75 6.75 60.25
3.75 6.25 60.75
3.75 6.75 60.75
3.75 6.25 61.25
3.75 6.75 61.25
3.75 6.25 61.75
3.75 6.75 61.75
3.25 4.25 62.25
3.75 4.25 62.25
3.75 4.75 62.25
3.25 4.25 62.75
3.75 4.25 62.75
3.75 4.75 62.75
3.75 5.25 62.25
3.75 5.75 62.25
3.75 5.25 62.75
3.75 5.75 62.75
3.25 4.25 63.25
3.75 4.25 63.25
3.75 4.75 63.25
3.25 4.25 63.75
3.75 4.25 63.75
3.75 4.75 63.75
3.75 5.25 63.25
3.75 5.75 63.25
3.75 5.25 63.75
3.75 5.75 63.75
3.75 6.25 62.25
3.75 6.75 62.25
3.75 6.25 62.75
3.75 6.75 62.75
3.75 6.25 63.25
3.75 6.75 63.25
3.75 6.25 63.75
3.75 6.75 63.75
4.25 5.75 60.25
4.25 5.25 60.75
4.25 5.75 60.75
4.25 5.25 61.25
4.25 5.75 61.25
4.25 5.25 61.75
4.25 5.75 61.75
4.25 6.25 60.25
4.25 6.75 60.25
4.75 6.75 60.25
4.25 6.75 60.75
4.75 6.75 60.75
5.25 6.75 60.25
5.75 6.75 60.25
5.25 6.75 60.75
5.75 6.75 60.75
4.25 6.25 61.25
4.25 6.75 61.25
4.75 6.75 61.25
4.25 6.25 61.75
4.25 6.75 61.75
4.75 6.75 61.75
5.25 6.75 61.25
5.75 6.75 61.25
5.25 6.75 61.75
5.75 6.75 61.75
6.75 6.25 60.25
6.25 6.75 60.25
6.75 6.75 60.25
6.25 6.75 60.75
6.75 6.75 60.75
7.25 6.25 60.25
7.75 6.25 60.25
7.25 6.75 60.25
7.75 6.75 60.25
7.25 6.25 60.75
7.75 6.25 60.75
7.25 6.75 60.75
7.75 6.75 60.75
6.25 6.75 61.25
6.75 6.75 61.25
6.25 6.75 61.75
6.75 6.75 61.75
7.25 6.25 61.25
7.75 6.25 61.25
7.25 6.75 61.25
7.75 6.75 61.25
7.75 6.25 61.75
7.25 6.75 61.75
7.75 6.75 61.75
4.25 5.25 62.25
4.25 5.75 62.25
4.25 4.75 63.75
4.75 4.75 63.75
4.25 5.75 63.25
4.25 5.25 63.75
4.75 5.25 63.75
4.25 5.75 63.75
4.75 5.75 63.75
5.25 5.75 63.75
5.75 5.75 63.75
4.25 6.25 62.25
4.25 6.75 62.25
4.75 6.75 62.25
4.25 6.25 62.75
4.25 6.75 62.75
4.75 6.75 62.75
5.75 6.25 62.25
5.25 6.75 62.25
5.75 6.75 62.25
5.25 6.75 62.75
5.75 6.75 62.75
4.25 6.25 63.25
4.25 6.75 63.25
4.75 6.75 63.25
4.25 6.25 63.75
4.75 6.25 63.75
4.25 6.75 63.75
4.75 6.75 63.75
5.25 6.75 63.25
5.75 6.75 63.25
5.75 6.25 63.75
5.75 6.75 63.75
6.25 6.75 62.25
6.75 6.75 62.25
6.25 6.75 62.75
6.75 6.75 62.75
7.25 6.75 62.25
7.75 6.75 62.25
7.25 6.75 62.75
7.75 6.75 62.75
6.25 6.75 63.25
6.75 6.75 63.25
6.25 6.75 63.75
6.75 6.75 63.75
7.25 6.75 63.25
7.75 6.75 63.25
7.25 6.75 63.75
7.75 6.75 63.75
8.25 6.25 56.25
8.75 6.25 56.25
8.25 6.25 56.75
8.75 6.25 56.75
9.25 6.25 56.25
9.75 6.25 56.25
9.25 6.25 56.75
9.75 6.25 56.75
8.25 6.25 57.25
8.75 6.25 57.25
8.25 6.25 57.75
8.75 6.25 57.75
9.25 6.25 57.25
9.75 6.25 57.25
9.25 6.25 57.75
9.75 6.25 57.75
10.25 6.25 56.25
10.75 6.25 56.25
10.25 6.25 56.75
10.75 6.25 56.75
11.25 6.25 56.25
11.75 6.25 56.25
11.25 6.25 56.75
11.75 6.25 56.75
10.25 6.25 57.25
10.75 6.25 57.25
10.25 6.25 57.75
10.75 6.25 57.75
11.25 6.25 57.25
11.75 6.25 57.25
11.25 6.25 57.75
11.75 6.25 57.75
8.25 6.25 58.25
8.75 6.25 58.25
8.25 6.25 58.75
8.75 6.25 58.75
9.25 6.25 58.25
9.75 6.25 58.25
9.25 6.25 58.75
9.75 6.25 58.75
8.25 6.25 59.25
8.75 6.25 59.25
8.25 6.25 59.75
8.75 6.25 59.75
9.25 6.25 59.25
9.75 6.25 59.25
9.25 6.25 59.75
9.75 6.25 59.75
10.25 6.25 58.25
10.75 6.25 58.25
10.25 6.25 58.75
10.75 6.25 58.75
11.25 6.25 58.25
11.75 6.25 58.25
11.25 6.25 58.75
11.75 6.25 58.75
10.25 6.25 59.25
10.75 6.25 59.25
10.25 6.25 59.75
10.75 6.25 59.75
11.25 6.25 59.25
11.75 6.25 59.25
11.25 6.25 59.75
11.75 6.25 59.75
12.25 6.25 56.25
12.75 6.25 56.25
12.25 6.25 56.75
12.75 6.25 56.75
13.25 6.25 56.25
13.75 6.25 56.25
13.25 6.75 56.25
13.75 6.75 56.25
13.25 6.25 56.75
13.75 6.25 56.75
13.75 6.75 56.75
12.25 6.25 57.25
12.75 6.25 57.25
12.25 6.25 57.75
12.75 6.25 57.75
13.25 6.25 57.25
13.75 6.25 57.25
13.75 6.75 57.25
13.25 6.25 57.75
13.75 6.25 57.75
13.75 6.75 57.75
14.25 6.25 56.25
14.75 6.25 56.25
14.25 6.75 56.25
14.25 6.25 56.75
14.75 6.25 56.75
14.25 6.75 56.75
15.25 6.25 56.25
15.75 6.25 56.25
15.25 6.25 56.75
15.75 6.25 56.75
14.25 6.25 57.25
14.75 6.25 57.25
14.25 6.75 57.25
14.25 6.25 57.75
14.75 6.25 57.75
14.25 6.75 57.75
15.25 6.25 57.25
15.75 6.25 57.25
15.25 6.25 57.75
15.75 6.25 57.75
12.25 6.25 58.25
12.75 6.25 58.25
12.25 6.25 58.75
12.75 6.25 58.75
13.25 6.25 58.25
13.75 6.25 58.25
13.25 6.25 58.75
13.75 6.25 58.75
12.25 6.25 59.25
12.75 6.25 59.25
12.25 6.25 59.75
12.75 6.25 59.75
13.25 6.25 59.25
13.75 6.25 59.25
13.25 6.25 59.75
13.75 6.25 59.75
13.75 6.75 59.75
14.25 6.25 58.25
14.75 6.25 58.25
14.25 6.75 58.25
14.25 6.25 58.75
14.75 6.25 58.75
14.25 6.75 58.75
15.25 6.25 58.25
15.75 6.25 58.25
15.25 6.25 58.75
15.75 6.25 58.75
14.25 6.25 59.25
14.75 6.25 59.25
14.25 6.25 59.75
14.75 6.25 59.75
15.25 6.25 59.25
15.75 6.25 59.25
15.25 6.25 59.75
15.75 6.25 59.75
8.25 6.25 60.25
8.75 6.25 60.25
8.25 6.25 60.75
8.75 6.25 60.75
9.25 6.25 60.25
9.75 6.25 60.25
9.25 6.25 60.75
9.75 6.25 60.75
8.25 6.25 61.25
8.75 6.25 61.25
8.25 6.25 61.75
8.75 6.25 61.75
8.25 6.75 61.75
9.25 6.25 61.25
9.75 6.25 61.25
9.25 6.25 61.75
9.75 6.25 61.75
10.25 6.25 60.25
10.75 6.25 60.25
10.25 6.25 60.75
10.75 6.25 60.75
11.25 6.25 60.25
11.75 6.25 60.25
11.25 6.25 60.75
11.75 6.25 60.75
10.25 6.25 61.25
10.75 6.25 61.25
10.25 6.25 61.75
10.75 6.25 61.75
11.25 6.25 61.25
11.75 6.25 61.25
11.25 6.25 61.75
11.75 6.25 61.75
8.25 6.25 62.25
8.75 6.25 62.25
8.25 6.75 62.25
8.75 6.75 62.25
8.25 6.75 62.75
8.75 6.75 62.75
9.25 6.25 62.25
9.75 6.25 62.25
9.25 6.75 62.25
9.75 6.25 62.75
9.25 6.75 62.75
9.75 6.75 62.75
8.25 6.75 63.25
8.75 6.75 63.25
8.25 6.75 63.75
8.75 6.75 63.75
9.25 6.75 63.25
9.75 6.75 63.25
9.25 6.75 63.75
9.75 6.75 63.75
10.25 6.25 62.25
10.75 6.25 62.25
10.75 6.75 62.25
10.25 6.25 62.75
10.75 6.25 62.75
10.25 6.75 62.75
10.75 6.75 62.75
11.25 6.25 62.25
11.75 6.25 62.25
11.25 6.75 62.25
11.75 6.75 62.25
11.25 6.75 62.75
11.75 6.75 62.75
10.25 6.75 63.25
10.75 6.75 63.25
10.25 6.75 63.75
10.75 6.75 63.75
11.75 6.25 63.25
11.25 6.75 63.25
11.75 6.75 63.25
11.25 6.75 63.75
11.75 6.75 63.75
12.25 6.25 60.25
12.75 6.25 60.25
12.25 6.25 60.75
12.75 6.25 60.75
13.25 6.25 60.25
13.75 6.25 60.25
13.75 6.75 60.25
13.25 6.25 60.75
13.75 6.25 60.75
13.25 6.75 60.75
13.75 6.75 60.75
12.25 6.25 61.25
12.75 6.25 61.25
12.75 6.75 61.25
12.25 6.25 61.75
12.75 6.25 61.75
12.25 6.75 61.75
12.75 6.75 61.75
13.25 6.25 61.25
13.75 6.25 61.25
13.25 6.75 61.25
13.75 6.75 61.25
13.25 6.25 61.75
13.75 6.25 61.75
13.25 6.75 61.75
13.75 6.75 61.75
14.25 6.25 60.25
14.75 6.25 60.25
14.25 6.75 60.25
14.25 6.25 60.75
14.75 6.25 60.75
14.25 6.75 60.75
15.25 6.25 60.25
15.75 6.25 60.25
15.25 6.25 60.75
15.75 6.25 60.75
14.25 6.25 61.25
14.75 6.25 61.25
14.25 6.75 61.25
14.25 6.25 61.75
14.75 6.25 61.75
14.25 6.75 61.75
15.25 6.25 61.25
15.75 6.25 61.25
15.25 6.25 61.75
15.75 6.25 61.75
15.75 4.25 63.75
15.75 4.75 63.75
14.75 5.25 63.75
14.75 5.75 63.75
15.25 5.25 63.75
15.75 5.25 63.75
15.25 5.75 63.75
15.75 5.75 63.75
12.25 6.25 62.25
12.75 6.25 62.25
12.25 6.75 62.25
12.75 6.75 62.25
12.75 6.25 62.75
12.25 6.75 62.75
12.75 6.75 62.75
13.25 6.25 62.25
13.75 6.25 62.25
13.25 6.75 62.25
13.75 6.75 62.25
13.25 6.25 62.75
13.75 6.25 62.75
13.25 6.75 62.75
13.75 6.75 62.75
12.25 6.25 63.25
12.75 6.25 63.25
12.25 6.75 63.25
12.75 6.75 63.25
12.75 6.25 63.75
12.25 6.75 63.75
12.75 6.75 63.75
13.25 6.25 63.25
13.75 6.25 63.25
13.25 6.75 63.25
13.75 6.75 63.25
13.25 6.25 63.75
13.75 6.25 63.75
13.25 6.75 63.75
13.75 6.75 63.75
14.25 6.25 62.25
14.75 6.25 62.25
14.25 6.75 62.25
14.25 6.25 62.75
14.75 6.25 62.75
14.25 6.75 62.75
15.25 6.25 62.25
15.75 6.25 62.25
15.25 6.25 62.75
15.75 6.25 62.75
14.25 6.25 63.25
14.75 6.25 63.25
14.25 6.75 63.25
14.25 6.25 63.75
14.75 6.25 63.75
14.25 6.75 63.75
15.25 6.25 63.25
15.75 6.25 63.25
15.25 6.25 63.75
15.75 6.25 63.75
16.25 0.25 50.25
16.75 0.25 50.25
16.25 0.75 50.25
16.75 0.75 50.25
16.25 0.25 50.75
16.75 0.25 50.75
16.75 0.75 50.75
16.25 1.25 50.25
16.75 1.25 50.25
16.25 1.75 50.25
16.75 1.75 50.25
16.75 1.25 50.75
16.75 1.75 50.75
16.25 0.25 51.25
16.75 0.25 51.25
16.75 0.75 51.25
16.25 0.25 51.75
16.75 0.25 51.75
16.75 0.75 51.75
16.75 1.25 51.25
16.75 1.75 51.25
16.75 1.25 51.75
16.75 1.75 51.75
16.75 2.25 50.25
16.75 2.75 50.25
16.75 2.25 50.75
16.75 2.75 50.75
16.25 3.25 50.25
16.75 3.25 50.25
16.25 3.75 50.25
16.75 3.75 50.25
16.75 3.25 50.75
16.75 3.75 50.75
16.75 2.25 51.25
16.75 2.75 51.25
16.75 2.25 51.75
16.75 2.75 51.75
16.75 3.25 51.25
16.75 3.75 51.25
16.75 3.25 51.75
16.75 3.75 51.75
16.25 4.25 48.25
16.25 4.75 48.25
16.75 4.75 48.25
16.25 4.25 48.75
16.25 4.75 48.75
16.75 4.75 48.75
16.25 5.25 48.25
16.75 5.25 48.25
16.25 5.75 48.25
16.25 5.25 48.75
16.75 5.25 48.75
16.25 5.75 48.75
16.25 4.25 49.25
16.25 4.75 49.25
16.75 4.75 49.25
16.25 4.25 49.75
16.25 4.75 49.75
16.75 4.75 49.75
16.25 5.25 49.25
16.75 5.25 49.25
16.25 5.75 49.25
16.25 5.25 49.75
16.75 5.25 49.75
16.25 5.75 49.75
16.25 4.25 50.25
16.75 4.25 50.25
16.25 4.75 50.25
16.75 4.75 50.25
16.75 4.25 50.75
16.75 4.75 50.75
16.25 5.25 50.25
16.75 5.25 50.25
16.25 5.75 50.25
16.75 5.75 50.25
16.75 5.25 50.75
16.75 5.75 50.75
16.75 4.25 51.25
16.75 4.75 51.25
16.75 4.25 51.75
16.75 4.75 51.75
16.75 5.25 51.25
16.75 5.75 51.25
16.75 5.25 51.75
16.75 5.75 51.75
16.25 6.25 50.25
16.75 6.25 50.25
16.25 6.25 50.75
16.75 6.25 50.75
16.25 6.25 51.25
16.75 6.25 51.25
16.25 6.25 51.75
16.75 6.25 51.75
16.25 0.25 52.25
16.75 0.25 52.25
16.75 0.75 52.25
16.25 0.25 52.75
16.75 0.25 52.75
16.75 0.75 52.75
16.75 1.25 52.25
16.75 1.75 52.25
16.75 1.25 52.75
16.75 1.75 52.75
16.25 0.25 53.25
16.75 0.25 53.25
16.75 0.75 53.25
16.75 0.25 53.75
16.75 0.75 53.75
16.75 1.25 53.25
16.75 1.75 53.25
16.75 1.25 53.75
16.75 1.75 53.75
16.75 2.25 52.25
16.75 2.75 52.25
16.75 2.25 52.75
16.75 2.75 52.75
16.75 3.25 52.25
16.75 3.75 52.25
16.75 3.25 52.75
16.75 3.75 52.75
16.75 2.25 53.25
16.75 2.75 53.25
16.75 2.25 53.75
16.75 2.75 53.75
16.75 3.25 53.25
16.75 3.75 53.25
16.75 3.25 53.75
16.75 3.75 53.75
17.25 3.25 53.25
17.25 3.75 53.25
17.25 3.25 53.75
17.25 3.75 53.75
16.25 0.25 54.25
16.75 0.25 54.25
16.75 0.75 54.25
16.25 0.25 54.75
16.75 0.25 54.75
16.75 0.75 54.75
16.75 1.25 54.25
16.75 1.75 54.25
16.75 1.25 54.75
16.75 1.75 54.75
16.25 0.25 55.25
16.75 0.25 55.25
16.75 0.75 55.25
16.25 0.25 55.75
16.75 0.25 55.75
16.75 0.75 55.75
16.75 1.25 55.25
16.75 1.75 55.25
16.75 1.25 55.75
16.75 1.75 55.75
16.75 2.25 54.25
16.75 2.75 54.25
16.75 2.25 54.75
16.75 2.75 54.75
17.25 2.75 54.75
16.75 3.25 54.25
16.75 3.75 54.25
16.75 3.25 54.75
16.75 3.75 54.75
17.25 3.25 54.25
17.25 3.75 54.25
17.25 3.25 54.75
17.25 3.75 54.75
16.75 2.25 55.25
16.75 2.75 55.25
16.75 2.25 55.75
16.75 2.75 55.75
17.25 2.75 55.25
16.75 3.25 55.25
16.75 3.75 55.25
16.75 3.25 55.75
16.75 3.75 55.75
17.25 3.25 55.25
17.25 3.75 55.25
17.25 3.25 55.75
17.25 3.75 55.75
16.75 4.25 52.25
16.75 4.75 52.25
16.75 4.25 52.75
16.75 4.75 52.75
16.75 5.25 52.25
16.75 5.75 52.25
16.75 5.25 52.75
16.75 5.75 52.75
16.75 4.25 53.25
16.75 4.75 53.25
16.75 4.75 53.75
17.25 4.25 53.25
17.25 4.25 53.75
16.75 5.25 53.25
16.75 5.75 53.25
16.75 5.25 53.75
16.75 5.75 53.75
16.25 6.25 52.25
16.75 6.25 52.25
16.25 6.25 52.75
16.75 6.25 52.75
16.25 6.25 53.25
16.75 6.25 53.25
16.25 6.25 53.75
16.75 6.25 53.75
16.75 4.75 54.25
16.75 4.75 54.75
17.25 4.25 54.25
17.25 4.25 54.75
16.75 5.25 54.25
16.75 5.75 54.25
16.75 5.25 54.75
16.75 5.75 54.75
16.75 4.75 55.25
16.75 4.75 55.75
17.25 4.25 55.25
17.25 4.25 55.75
16.75 5.25 55.25
16.75 5.75 55.25
16.75 5.25 55.75
16.75 5.75 55.75
16.25 6.25 54.25
16.75 6.25 54.25
16.25 6.25 54.75
16.75 6.25 54.75
16.25 6.25 55.25
16.75 6.25 55.25
16.25 6.25 55.75
16.75 6.25 55.75
16.25 0.25 56.25
16.75 0.25 56.25
16.75 0.75 56.25
16.25 0.25 56.75
16.75 0.25 56.75
16.75 0.75 56.75
16.75 1.25 56.25
16.75 1.75 56.25
16.75 1.25 56.75
16.75 1.75 56.75
16.25 0.25 57.25
16.75 0.25 57.25
16.75 0.75 57.25
16.25 0.25 57.75
16.75 0.25 57.75
16.75 0.75 57.75
16.75 1.25 57.25
16.75 1.75 57.25
16.75 1.25 57.75
16.75 1.75 57.75
16.75 2.25 56.25
16.75 2.75 56.25
16.75 2.25 56.75
16.75 2.75 56.75
16.75 3.25 56.25
16.75 3.75 56.25
16.75 3.25 56.75
16.75 3.75 56.75
17.25 3.25 56.25
17.25 3.75 56.25
17.25 3.25 56.75
17.25 3.75 56.75
16.75 2.25 57.25
16.75 2.75 57.25
16.75 2.25 57.75
16.75 2.75 57.75
16.75 3.25 57.25
16.75 3.75 57.25
16.75 3.25 57.75
16.75 3.75 57.75
17.25 3.25 57.25
17.25 3.75 57.25
17.25 3.25 57.75
17.25 3.75 57.75
16.25 0.25 58.25
16.75 0.25 58.25
16.75 0.75 58.25
16.25 0.25 58.75
16.75 0.25 58.75
16.75 0.75 58.75
16.75 1.25 58.25
16.75 1.75 58.25
16.75 1.25 58.75
16.75 1.75 58.75
16.25 0.25 59.25
16.75 0.25 59.25
16.75 0.75 59.25
16.25 0.25 59.75
16.75 0.25 59.75
16.25 0.75 59.75
16.75 0.75 59.75
16.75 1.25 59.25
16.75 1.75 59.25
16.75 1.25 59.75
16.75 1.75 59.75
16.75 2.25 58.25
16.75 2.75 58.25
16.75 2.25 58.75
16.75 2.75 58.75
16.75 3.25 58.25
16.75 3.75 58.25
16.75 3.25 58.75
16.75 3.75 58.75
17.25 3.75 58.25
17.25 3.25 58.75
17.25 3.75 58.75
16.75 2.25 59.25
16.75 2.75 59.25
16.75 2.25 59.75
16.75 2.75 59.75
16.75 3.25 59.25
16.75 3.75 59.25
16.75 3.25 59.75
16.75 3.75 59.75
17.25 3.75 59.25
17.25 3.75 59.75
16.75 4.75 56.25
16.75 4.75 56.75
17.25 4.25 56.25
17.25 4.25 56.75
16.75 5.25 56.25
16.75 5.75 56.25
16.75 5.25 56.75
16.75 5.75 56.75
16.75 4.75 57.25
16.75 4.75 57.75
17.25 4.25 57.25
17.25 4.25 57.75
16.75 5.25 57.25
16.75 5.75 57.25
16.75 5.25 57.75
16.75 5.75 57.75
16.25 6.25 56.25
16.75 6.25 56.25
16.25 6.25 56.75
16.75 6.25 56.75
16.25 6.25 57.25
16.75 6.25 57.25
16.25 6.25 57.75
16.75 6.25 57.75
16.75 4.75 58.25
16.75 4.75 58.75
17.25 4.25 58.25
17.25 4.25 58.75
16.75 5.25 58.25
16.75 5.75 58.25
16.75 5.25 58.75
16.75 5.75 58.75
16.75 4.75 59.25
17.25 4.25 59.25
17.25 4.25 59.75
16.75 5.25 59.25
16.75 5.75 59.25
16.75 5.25 59.75
16.75 5.75 59.75
16.25 6.25 58.25
16.75 6.25 58.25
16.25 6.25 58.75
16.75 6.25 58.75
16.25 6.25 59.25
16.75 6.25 59.25
16.25 6.25 59.75
16.75 6.25 59.75
16.25 0.25 60.25
16.75 0.25 60.25
16.25 0.75 60.25
16.75 0.75 60.25
16.25 0.25 60.75
16.75 0.25 60.75
16.25 0.75 60.75
16.75 0.75 60.75
16.25 1.25 60.25
16.75 1.25 60.25
16.25 1.75 60.25
16.75 1.75 60.25
16.25 1.25 60.75
16.75 1.25 60.75
16.25 1.75 60.75
16.75 1.75 60.75
16.25 0.25 61.25
16.75 0.25 61.25
16.25 0.75 61.25
16.75 0.75 61.25
16.25 0.25 61.75
16.75 0.25 61.75
16.25 0.75 61.75
16.75 0.75 61.75
16.25 1.25 61.25
16.75 1.25 61.25
16.75 1.75 61.25
16.75 1.25 61.75
16.75 1.75 61.75
16.25 2.25 60.25
16.75 2.25 60.25
16.75 2.75 60.25
16.75 2.25 60.75
16.75 2.75 60.75
16.75 3.25 60.25
16.75 3.75 60.25
16.75 3.25 60.75
16.75 3.75 60.75
17.25 3.25 60.25
17.25 3.75 60.25
17.25 3.25 60.75
17.25 3.75 60.75
16.75 2.25 61.25
16.75 2.75 61.25
16.75 2.25 61.75
16.75 2.75 61.75
16.75 3.25 61.25
16.75 3.75 61.25
16.75 3.25 61.75
16.75 3.75 61.75
17.25 3.25 61.25
17.25 3.75 61.25
17.25 3.25 61.75
17.25 3.75 61.75
16.25 0.25 62.25
16.75 0.25 62.25
16.75 0.75 62.25
16.75 0.25 62.75
16.75 0.75 62.75
16.75 1.25 62.25
16.75 1.75 62.25
16.75 1.25 62.75
16.75 1.75 62.75
16.75 0.25 63.25
16.75 0.75 63.25
16.75 0.25 63.75
16.75 0.75 63.75
16.75 1.25 63.25
16.75 1.75 63.25
16.75 1.25 63.75
16.75 1.75 63.75
16.75 2.25 62.25
16.75 2.75 62.25
16.75 2.25 62.75
16.75 2.75 62.75
17.25 2.75 62.75
16.75 3.25 62.25
16.75 3.75 62.25
16.75 3.25 62.75
16.75 3.75 62.75
17.25 3.25 62.25
17.25 3.75 62.25
17.25 3.25 62.75
17.25 3.75 62.75
16.75 2.25 63.25
16.75 2.75 63.25
16.75 2.25 63.75
16.75 2.75 63.75
17.25 2.75 63.25
17.25 2.75 63.75
16.75 3.25 63.25
16.75 3.75 63.25
16.75 3.25 63.75
16.75 3.75 63.75
17.25 3.25 63.25
17.25 3.75 63.25
17.25 3.25 63.75
17.25 3.75 63.75
16.75 4.75 60.25
16.75 4.75 60.75
17.25 4.25 60.25
17.25 4.25 60.75
16.75 5.25 60.25
16.75 5.75 60.25
16.75 5.25 60.75
16.75 5.75 60.75
16.75 4.75 61.25
16.75 4.75 61.75
17.25 4.25 61.25
17.25 4.25 61.75
16.75 5.25 61.25
16.75 5.75 61.25
16.75 5.25 61.75
16.75 5.75 61.75
16.25 6.25 60.25
16.75 6.25 60.25
16.25 6.25 60.75
16.75 6.25 60.75
16.25 6.25 61.25
16.75 6.25 61.25
16.25 6.25 61.75
16.75 6.25 61.75
16.75 4.25 62.25
16.75 4.75 62.25
16.75 4.25 62.75
16.75 4.75 62.75
17.25 4.25 62.25
17.25 4.25 62.75
16.75 5.25 62.25
16.75 5.75 62.25
16.75 5.25 62.75
16.75 5.75 62.75
16.75 4.25 63.25
16.75 4.75 63.25
16.25 4.25 63.75
16.75 4.25 63.75
16.25 4.75 63.75
16.75 4.75 63.75
17.25 4.25 63.25
17.25 4.25 63.75
16.75 5.25 63.25
16.75 5.75 63.25
16.25 5.25 63.75
16.75 5.25 63.75
16.25 5.75 63.75
16.75 5.75 63.75
16.25 6.25 62.25
16.75 6.25 62.25
16.25 6.25 62.75
16.75 6.25 62.75
16.25 6.25 63.25
16.75 6.25 63.25
16.25 6.25 63.75
16.75 6.25 63.75
3.25 0.25 64.25
3.25 0.75 64.25
3.25 0.25 64.75
3.25 0.75 64.75
3.25 1.25 64.25
3.25 1.75 64.25
3.25 1.25 64.75
3.25 1.75 64.75
3.25 0.25 65.25
3.25 0.75 65.25
3.75 0.75 65.25
3.25 0.75 65.75
3.75 0.75 65.75
3.25 1.25 65.25
3.25 1.75 65.25
3.75 1.75 65.25
3.75 1.75 65.75
3.25 2.25 64.25
3.75 2.25 64.25
3.25 2.75 64.25
3.75 2.75 64.25
3.25 2.25 64.75
3.75 2.25 64.75
3.25 2.75 64.75
3.75 2.75 64.75
3.25 3.25 64.25
3.75 3.25 64.25
3.25 3.75 64.25
3.75 3.75 64.25
3.25 3.25 64.75
3.75 3.25 64.75
3.25 3.75 64.75
3.75 3.75 64.75
3.25 2.25 65.25
3.25 2.75 65.25
3.25 2.25 65.75
