# .PCD v0.7 - Point Cloud Data file format
VERSION 0.7
FIELDS x y z
SIZE 4 4 4
TYPE F F F
COUNT 1 1 1
WIDTH 1968
HEIGHT 1
VIEWPOINT 0 0 0 1 0 0 0
POINTS 1968
DATA ascii
12.15 -0.75 57.75
12.45 -0.75 57.75
12.15 -1.05 58.049999
12.45 -1.05 58.049999
12.15 -0.75 58.049999
12.45 -0.75 58.049999
12.15 -0.44999999 57.75
12.45 -0.44999999 57.75
12.15 -0.15000001 57.75
12.45 -0.15000001 57.75
12.15 -0.44999999 58.049999
12.45 -0.44999999 58.049999
12.15 -0.15000001 58.049999
12.45 -0.15000001 58.049999
12.15 -1.05 58.349998
12.45 -1.05 58.349998
12.15 -0.75 58.349998
12.45 -0.75 58.349998
12.15 -1.05 58.650002
12.45 -1.05 58.650002
12.45 -0.75 58.650002
12.75 -1.05 58.349998
12.15 -0.44999999 58.349998
12.45 -0.44999999 58.349998
12.45 -0.15000001 58.349998
12.15 -0.44999999 58.650002
12.45 -0.44999999 58.650002
12.15 -0.15000001 58.650002
12.45 -0.15000001 58.650002
12.15 -2.25 58.950001
12.45 -2.25 58.950001
12.45 -1.95 58.950001
12.15 -2.25 59.25
12.45 -2.25 59.25
12.15 -1.95 59.25
12.45 -1.95 59.25
12.75 -2.25 59.25
12.75 -1.95 59.25
12.15 -1.65 58.950001
12.45 -1.65 58.950001
12.45 -1.35 58.950001
12.15 -1.65 59.25
12.45 -1.65 59.25
12.45 -1.35 59.25
12.75 -1.65 59.25
12.75 -1.35 59.25
12.45 -2.25 59.549999
12.15 -1.95 59.549999
12.45 -1.95 59.549999
12.15 -1.95 59.849998
12.75 -2.25 59.549999
12.75 -1.95 59.549999
12.15 -1.65 59.549999
12.45 -1.65 59.549999
12.15 -1.65 59.849998
12.75 -1.65 59.549999
12.75 -1.35 59.549999
12.45 -1.05 58.950001
12.45 -0.75 58.950001
12.15 -1.05 59.25
12.45 -1.05 59.25
12.45 -0.75 59.25
12.75 -1.05 59.25
12.75 -0.75 59.25
12.15 -0.44999999 58.950001
12.45 -0.44999999 58.950001
12.45 -0.15000001 58.950001
12.45 -0.44999999 59.25
12.15 -0.15000001 59.25
12.45 -0.15000001 59.25
12.75 -0.44999999 59.25
12.75 -0.15000001 59.25
12.15 -1.05 59.549999
12.15 -0.75 59.549999
12.75 -1.05 59.549999
12.75 -0.75 59.549999
12.15 -0.44999999 59.549999
12.15 -0.15000001 59.549999
12.75 -0.44999999 59.549999
12.75 -0.15000001 59.549999
9.75 -1.65 60.150002
10.05 -1.65 60.150002
10.05 -1.35 60.150002
9.75 -1.35 60.450001
10.05 -1.35 60.450001
10.65 -1.35 60.150002
10.65 -1.65 60.450001
10.35 -1.35 60.450001
10.65 -1.35 60.450001
9.75 -1.35 60.75
10.05 -1.35 60.75
10.35 -1.35 60.75
10.95 -1.65 60.150002
11.25 -1.65 60.150002
10.95 -1.35 60.150002
11.25 -1.35 60.150002
10.95 -1.35 60.450001
11.25 -1.35 60.450001
11.55 -1.65 60.150002
11.85 -1.65 60.150002
11.55 -1.35 60.150002
11.85 -1.35 60.150002
11.55 -1.65 60.450001
11.85 -1.65 60.450001
11.55 -1.35 60.450001
11.85 -1.35 60.450001
10.95 -1.35 60.75
11.25 -1.35 60.75
11.55 -1.35 60.75
11.55 -1.35 61.049999
10.05 -1.05 60.450001
10.35 -1.05 60.450001
10.65 -1.05 60.450001
9.75 -1.05 60.75
10.05 -1.05 60.75
9.75 -1.05 61.049999
10.05 -1.05 61.049999
9.75 -0.75 61.049999
10.05 -0.75 61.049999
10.35 -1.05 60.75
10.35 -1.05 61.049999
10.65 -1.05 61.049999
10.35 -0.75 61.049999
10.65 -0.75 61.049999
11.25 -1.05 60.450001
11.25 -0.75 60.450001
11.55 -1.05 60.150002
11.85 -1.05 60.150002
11.55 -0.75 60.150002
11.85 -0.75 60.150002
11.55 -1.05 60.450001
11.85 -1.05 60.450001
11.55 -0.75 60.450001
11.85 -0.75 60.450001
11.25 -0.15000001 60.150002
11.25 -0.44999999 60.450001
11.55 -0.44999999 60.150002
11.85 -0.44999999 60.150002
11.55 -0.15000001 60.150002
11.85 -0.15000001 60.150002
11.55 -0.44999999 60.450001
11.85 -0.44999999 60.450001
11.55 -0.15000001 60.450001
11.85 -0.15000001 60.450001
10.95 -1.05 60.75
11.25 -1.05 60.75
10.95 -0.75 60.75
11.25 -0.75 60.75
10.95 -1.05 61.049999
11.25 -1.05 61.049999
10.95 -0.75 61.049999
11.25 -0.75 61.049999
11.55 -1.05 60.75
11.85 -1.05 60.75
11.55 -0.75 60.75
11.85 -0.75 60.75
11.55 -0.75 61.049999
10.95 -0.44999999 60.75
11.25 -0.44999999 60.75
10.95 -0.15000001 60.75
11.25 -0.15000001 60.75
10.95 -0.44999999 61.049999
11.25 -0.44999999 61.049999
10.95 -0.15000001 61.049999
11.25 -0.15000001 61.049999
11.55 -0.44999999 61.049999
11.25 -1.35 61.349998
9.75 -1.05 61.349998
10.05 -1.05 61.349998
9.75 -0.75 61.349998
10.05 -0.75 61.349998
9.75 -1.05 61.650002
10.05 -1.05 61.650002
9.75 -0.75 61.650002
10.05 -0.75 61.650002
10.65 -1.05 61.349998
10.35 -0.75 61.349998
10.35 -0.75 61.650002
10.65 -0.75 61.650002
9.75 -0.44999999 61.650002
9.75 -0.15000001 61.650002
10.35 -0.44999999 61.650002
10.65 -0.44999999 61.650002
9.75 -1.05 61.950001
9.75 -0.75 61.950001
10.05 -0.75 61.950001
9.75 -0.75 62.25
10.05 -0.75 62.25
10.35 -1.05 61.950001
10.35 -0.75 61.950001
10.65 -0.75 61.950001
10.35 -0.75 62.25
10.65 -0.75 62.25
9.75 -0.44999999 61.950001
10.05 -0.44999999 61.950001
10.05 -0.15000001 61.950001
9.75 -0.44999999 62.25
10.05 -0.44999999 62.25
10.35 -0.44999999 61.950001
10.65 -0.44999999 61.950001
10.65 -0.15000001 61.950001
10.65 -0.44999999 62.25
10.65 -0.15000001 62.25
10.95 -1.05 61.349998
11.25 -1.05 61.349998
10.95 -0.75 61.349998
11.25 -0.75 61.349998
10.95 -1.05 61.650002
11.25 -1.05 61.650002
10.95 -0.75 61.650002
11.25 -0.75 61.650002
11.55 -1.05 61.349998
10.95 -0.44999999 61.349998
11.25 -0.44999999 61.349998
10.95 -0.15000001 61.349998
11.25 -0.15000001 61.349998
10.95 -0.44999999 61.650002
11.25 -0.44999999 61.650002
10.95 -0.15000001 61.650002
11.25 -0.15000001 61.650002
10.95 -1.05 61.950001
11.25 -1.05 61.950001
10.95 -0.75 61.950001
11.25 -0.75 61.950001
10.95 -0.75 62.25
10.95 -0.44999999 61.950001
11.25 -0.44999999 61.950001
10.95 -0.15000001 61.950001
11.25 -0.15000001 61.950001
11.25 -0.44999999 62.25
10.95 -0.15000001 62.25
11.25 -0.15000001 62.25
9.75 -0.75 62.549999
10.05 -0.75 62.549999
9.75 -0.75 62.849998
10.35 -0.75 62.549999
10.65 -0.75 62.549999
10.65 -0.75 62.849998
9.75 -0.44999999 62.549999
10.05 -0.44999999 62.549999
9.75 -0.44999999 62.849998
10.05 -0.44999999 62.849998
10.05 -0.15000001 62.849998
10.35 -0.44999999 62.549999
10.65 -0.44999999 62.549999
10.65 -0.15000001 62.549999
10.35 -0.44999999 62.849998
10.65 -0.44999999 62.849998
10.35 -0.15000001 62.849998
10.65 -0.15000001 62.849998
9.75 -0.44999999 63.150002
10.05 -0.44999999 63.150002
9.75 -0.15000001 63.150002
10.05 -0.15000001 63.150002
9.75 -0.44999999 63.450001
10.05 -0.44999999 63.450001
9.75 -0.15000001 63.450001
10.05 -0.15000001 63.450001
10.35 -0.44999999 63.150002
10.65 -0.44999999 63.150002
10.65 -0.15000001 63.150002
10.35 -0.44999999 63.450001
10.65 -0.44999999 63.450001
10.35 -0.15000001 63.450001
10.95 -0.75 62.549999
10.95 -0.75 62.849998
10.95 -0.44999999 62.549999
10.95 -0.15000001 62.549999
10.95 -0.44999999 62.849998
10.95 -0.15000001 62.849998
9.75 -0.44999999 63.75
9.75 -0.15000001 63.75
10.05 -0.15000001 63.75
9.75 -0.15000001 64.050003
10.05 -0.15000001 64.050003
10.35 -0.44999999 63.75
10.65 -0.44999999 63.75
10.35 -0.15000001 63.75
10.65 -0.15000001 63.75
10.35 -0.44999999 64.050003
10.65 -0.44999999 64.050003
10.35 -0.15000001 64.050003
10.65 -0.15000001 64.050003
9.75 -0.15000001 64.349998
10.05 -0.15000001 64.349998
9.75 -0.15000001 64.650002
10.05 -0.15000001 64.650002
10.35 -0.44999999 64.349998
10.65 -0.44999999 64.349998
10.35 -0.15000001 64.349998
10.65 -0.15000001 64.349998
10.35 -0.15000001 64.650002
10.65 -0.15000001 64.650002
9.75 -0.15000001 64.949997
10.05 -0.15000001 64.949997
9.75 -0.15000001 65.25
10.05 -0.15000001 65.25
10.35 -0.15000001 64.949997
10.65 -0.15000001 64.949997
10.35 -0.15000001 65.25
9.75 -0.15000001 65.550003
10.05 -0.15000001 65.550003
10.05 -0.44999999 65.849998
9.75 -0.15000001 65.849998
10.05 -0.15000001 65.849998
10.35 -0.15000001 65.550003
10.35 -0.15000001 65.849998
10.05 -1.05 66.449997
9.75 -0.15000001 66.150002
10.05 -0.15000001 66.150002
9.75 -0.15000001 66.449997
10.05 -0.15000001 66.449997
10.35 -0.15000001 66.150002
10.35 -0.15000001 66.449997
10.05 -1.05 66.75
10.05 -0.75 66.75
9.75 -0.15000001 67.349998
10.35 -0.75 67.949997
10.35 -0.75 68.25
9.75 -0.15000001 67.949997
9.75 -0.15000001 68.25
9.75 -0.15000001 68.849998
10.35 -0.75 69.449997
9.75 -0.15000001 70.050003
10.35 -0.44999999 70.050003
10.35 -0.75 70.650002
9.75 -0.15000001 70.650002
10.35 -0.44999999 70.349998
9.75 -0.15000001 71.550003
10.35 -0.44999999 71.550003
10.95 -0.75 71.25
10.35 -0.75 72.150002
10.05 -0.15000001 72.449997
10.35 -0.15000001 72.449997
10.35 -0.44999999 73.050003
10.95 -0.75 72.75
9.75 -0.15000001 73.650002
10.05 -0.15000001 73.650002
9.75 -0.15000001 73.949997
4.6500001 3.75 1.05
4.3499999 4.0500002 1.05
4.6500001 4.0500002 1.05
4.0500002 4.6500001 1.05
4.3499999 4.3499999 1.05
4.6500001 4.3499999 1.05
4.3499999 4.6500001 1.05
4.6500001 4.6500001 1.05
4.3499999 3.75 1.35
4.6500001 3.75 1.35
4.3499999 4.0500002 1.35
4.6500001 4.0500002 1.35
4.6500001 3.75 1.65
4.3499999 4.0500002 1.65
4.6500001 4.0500002 1.65
4.0500002 4.6500001 1.35
4.0500002 4.6500001 1.65
4.3499999 4.3499999 1.35
4.6500001 4.3499999 1.35
4.3499999 4.3499999 1.65
4.6500001 4.3499999 1.65
4.3499999 4.6500001 1.65
4.6500001 3.75 1.95
4.3499999 4.0500002 1.95
4.6500001 4.0500002 1.95
4.3499999 3.75 2.25
4.6500001 3.75 2.25
4.3499999 4.0500002 2.25
4.6500001 4.0500002 2.25
4.0500002 4.6500001 1.95
4.0500002 4.6500001 2.25
4.3499999 4.3499999 1.95
4.6500001 4.3499999 1.95
4.6500001 4.6500001 1.95
4.3499999 4.3499999 2.25
4.6500001 4.3499999 2.25
4.6500001 0.15000001 4.3499999
4.6500001 0.75 4.3499999
4.6500001 1.35 4.6500001
4.6500001 1.95 4.6500001
4.6500001 3.75 2.55
4.3499999 4.0500002 2.55
4.6500001 4.0500002 2.55
4.6500001 3.75 2.8499999
4.3499999 4.0500002 2.8499999
4.6500001 4.0500002 2.8499999
4.0500002 4.6500001 2.55
4.0500002 4.6500001 2.8499999
4.3499999 4.3499999 2.55
4.6500001 4.3499999 2.55
4.3499999 4.6500001 2.55
4.6500001 4.6500001 2.55
4.3499999 4.3499999 2.8499999
4.6500001 4.3499999 2.8499999
4.3499999 3.75 3.1500001
4.6500001 3.75 3.1500001
4.3499999 4.0500002 3.1500001
4.6500001 4.0500002 3.1500001
4.6500001 3.75 3.45
4.3499999 4.0500002 3.45
4.6500001 4.0500002 3.45
4.0500002 4.6500001 3.1500001
4.0500002 4.6500001 3.45
4.3499999 4.3499999 3.1500001
4.6500001 4.3499999 3.1500001
4.3499999 4.6500001 3.1500001
4.3499999 4.3499999 3.45
4.6500001 4.3499999 3.45
4.3499999 4.6500001 3.45
4.6500001 4.6500001 3.45
4.6500001 3.75 3.75
4.3499999 4.0500002 3.75
4.6500001 4.0500002 3.75
4.6500001 3.75 4.0500002
4.3499999 4.0500002 4.0500002
4.6500001 4.0500002 4.0500002
4.0500002 4.6500001 3.75
4.0500002 4.6500001 4.0500002
4.3499999 4.3499999 3.75
4.6500001 4.3499999 3.75
4.3499999 4.6500001 3.75
4.6500001 4.6500001 3.75
4.3499999 4.3499999 4.0500002
4.6500001 4.3499999 4.0500002
4.3499999 4.6500001 4.0500002
4.6500001 3.75 4.3499999
4.3499999 4.0500002 4.3499999
4.6500001 4.0500002 4.3499999
4.6500001 3.75 4.6500001
4.3499999 4.0500002 4.6500001
4.6500001 4.0500002 4.6500001
4.0500002 4.6500001 4.3499999
4.0500002 4.6500001 4.6500001
4.3499999 4.3499999 4.3499999
4.6500001 4.3499999 4.3499999
4.3499999 4.6500001 4.3499999
4.6500001 4.6500001 4.3499999
4.3499999 4.3499999 4.6500001
4.6500001 4.3499999 4.6500001
4.3499999 4.6500001 4.6500001
4.9499998 0.15000001 1.05
5.25 0.15000001 1.05
4.9499998 0.44999999 1.05
5.25 0.44999999 1.05
4.9499998 0.75 1.05
5.25 0.75 1.05
4.9499998 1.05 1.05
4.9499998 1.35 1.05
5.25 1.35 1.05
4.9499998 1.65 1.05
5.25 1.65 1.05
4.9499998 1.95 1.05
5.25 1.95 1.05
4.9499998 2.25 1.05
5.25 2.25 1.05
4.9499998 0.15000001 1.35
4.9499998 0.44999999 1.35
5.25 0.44999999 1.35
4.9499998 0.15000001 1.65
5.25 0.15000001 1.65
4.9499998 0.44999999 1.65
5.25 0.44999999 1.65
4.9499998 0.75 1.35
5.25 0.75 1.35
4.9499998 1.05 1.35
5.25 1.05 1.35
4.9499998 0.75 1.65
5.25 0.75 1.65
4.9499998 1.05 1.65
5.25 1.05 1.65
4.9499998 0.15000001 1.95
4.9499998 0.44999999 1.95
5.25 0.44999999 1.95
4.9499998 0.15000001 2.25
5.25 0.15000001 2.25
4.9499998 0.44999999 2.25
5.25 0.44999999 2.25
4.9499998 0.75 1.95
5.25 0.75 1.95
4.9499998 1.05 1.95
5.25 1.05 1.95
4.9499998 0.75 2.25
5.25 0.75 2.25
4.9499998 1.05 2.25
5.25 1.05 2.25
4.9499998 1.35 1.35
5.25 1.35 1.35
4.9499998 1.65 1.35
5.25 1.65 1.35
4.9499998 1.35 1.65
4.9499998 1.65 1.65
5.25 1.65 1.65
4.9499998 1.95 1.35
5.25 1.95 1.35
4.9499998 2.25 1.35
5.25 2.25 1.35
4.9499998 1.95 1.65
5.25 1.95 1.65
4.9499998 2.25 1.65
5.25 2.25 1.65
4.9499998 1.35 1.95
5.25 1.35 1.95
4.9499998 1.65 1.95
5.25 1.65 1.95
4.9499998 1.35 2.25
5.25 1.35 2.25
4.9499998 1.65 2.25
5.25 1.65 2.25
4.9499998 1.95 1.95
5.25 1.95 1.95
4.9499998 2.25 1.95
5.25 2.25 1.95
4.9499998 1.95 2.25
5.25 1.95 2.25
4.9499998 2.25 2.25
5.25 2.25 2.25
4.9499998 2.55 1.05
5.25 2.55 1.05
4.9499998 2.8499999 1.05
5.25 2.8499999 1.05
4.9499998 3.1500001 1.05
5.25 3.1500001 1.05
4.9499998 3.45 1.05
5.25 3.45 1.05
4.9499998 3.75 1.05
5.25 3.75 1.05
4.9499998 4.0500002 1.05
4.9499998 4.3499999 1.05
4.9499998 2.55 1.35
5.25 2.55 1.35
4.9499998 2.8499999 1.35
4.9499998 2.55 1.65
5.25 2.55 1.65
4.9499998 2.8499999 1.65
5.25 2.8499999 1.65
4.9499998 3.1500001 1.35
5.25 3.1500001 1.35
4.9499998 3.45 1.35
5.25 3.45 1.35
4.9499998 3.1500001 1.65
5.25 3.1500001 1.65
4.9499998 3.45 1.65
5.25 3.45 1.65
4.9499998 2.55 1.95
5.25 2.55 1.95
4.9499998 2.8499999 1.95
5.25 2.8499999 1.95
4.9499998 2.55 2.25
5.25 2.55 2.25
4.9499998 2.8499999 2.25
5.25 2.8499999 2.25
4.9499998 3.1500001 1.95
5.25 3.1500001 1.95
4.9499998 3.45 1.95
5.25 3.45 1.95
4.9499998 3.1500001 2.25
5.25 3.1500001 2.25
4.9499998 3.45 2.25
5.25 3.45 2.25
4.9499998 3.75 1.35
5.25 3.75 1.35
4.9499998 3.75 1.65
5.25 3.75 1.65
4.9499998 4.0500002 1.65
4.9499998 4.3499999 1.65
4.9499998 3.75 1.95
5.25 3.75 1.95
4.9499998 4.0500002 1.95
4.9499998 3.75 2.25
5.25 3.75 2.25
4.9499998 0.15000001 2.55
4.9499998 0.44999999 2.55
5.25 0.44999999 2.55
4.9499998 0.15000001 2.8499999
5.25 0.15000001 2.8499999
4.9499998 0.44999999 2.8499999
5.25 0.44999999 2.8499999
4.9499998 0.75 2.55
5.25 0.75 2.55
4.9499998 1.05 2.55
5.25 1.05 2.55
4.9499998 0.75 2.8499999
5.25 0.75 2.8499999
4.9499998 1.05 2.8499999
5.25 1.05 2.8499999
4.9499998 0.15000001 3.1500001
4.9499998 0.44999999 3.1500001
4.9499998 0.15000001 3.45
5.25 0.15000001 3.45
4.9499998 0.44999999 3.45
5.25 0.44999999 3.45
4.9499998 0.75 3.1500001
5.25 0.75 3.1500001
4.9499998 1.05 3.1500001
5.25 1.05 3.1500001
4.9499998 0.75 3.45
5.25 0.75 3.45
4.9499998 1.05 3.45
5.25 1.05 3.45
4.9499998 1.35 2.55
5.25 1.35 2.55
4.9499998 1.65 2.55
5.25 1.65 2.55
4.9499998 1.35 2.8499999
5.25 1.35 2.8499999
4.9499998 1.65 2.8499999
5.25 1.65 2.8499999
4.9499998 1.95 2.55
5.25 1.95 2.55
4.9499998 2.25 2.55
5.25 2.25 2.55
4.9499998 1.95 2.8499999
5.25 1.95 2.8499999
4.9499998 2.25 2.8499999
5.25 2.25 2.8499999
4.9499998 1.35 3.1500001
5.25 1.35 3.1500001
4.9499998 1.65 3.1500001
5.25 1.65 3.1500001
4.9499998 1.35 3.45
5.25 1.35 3.45
4.9499998 1.65 3.45
5.25 1.65 3.45
4.9499998 1.95 3.1500001
4.9499998 2.25 3.1500001
5.25 2.25 3.1500001
4.9499998 1.95 3.45
5.25 1.95 3.45
4.9499998 2.25 3.45
5.25 2.25 3.45
4.9499998 0.15000001 3.75
4.9499998 0.44999999 3.75
4.9499998 0.15000001 4.0500002
4.9499998 0.44999999 4.0500002
5.25 0.44999999 4.0500002
4.9499998 0.75 3.75
5.25 0.75 3.75
4.9499998 1.05 3.75
5.25 1.05 3.75
4.9499998 0.75 4.0500002
5.25 0.75 4.0500002
4.9499998 1.05 4.0500002
5.25 1.05 4.0500002
4.9499998 0.15000001 4.3499999
5.25 0.15000001 4.3499999
4.9499998 0.44999999 4.3499999
4.9499998 0.15000001 4.6500001
5.25 0.15000001 4.6500001
4.9499998 0.44999999 4.6500001
5.25 0.44999999 4.6500001
4.9499998 0.75 4.3499999
4.9499998 1.05 4.3499999
5.25 1.05 4.3499999
4.9499998 0.75 4.6500001
5.25 0.75 4.6500001
4.9499998 1.05 4.6500001
5.25 1.05 4.6500001
4.9499998 1.35 3.75
5.25 1.35 3.75
4.9499998 1.65 3.75
5.25 1.65 3.75
4.9499998 1.35 4.0500002
5.25 1.35 4.0500002
4.9499998 1.65 4.0500002
5.25 1.65 4.0500002
4.9499998 1.95 3.75
4.9499998 2.25 3.75
4.9499998 1.95 4.0500002
5.25 1.95 4.0500002
4.9499998 2.25 4.0500002
5.25 2.25 4.0500002
4.9499998 1.35 4.3499999
5.25 1.35 4.3499999
4.9499998 1.65 4.3499999
5.25 1.65 4.3499999
4.9499998 1.35 4.6500001
5.25 1.35 4.6500001
4.9499998 1.65 4.6500001
5.25 1.65 4.6500001
4.9499998 1.95 4.3499999
4.9499998 2.25 4.3499999
4.9499998 1.95 4.6500001
5.25 1.95 4.6500001
4.9499998 2.25 4.6500001
5.25 2.25 4.6500001
4.9499998 2.55 2.55
5.25 2.55 2.55
4.9499998 2.8499999 2.55
5.25 2.8499999 2.55
4.9499998 2.55 2.8499999
5.25 2.55 2.8499999
4.9499998 2.8499999 2.8499999
5.25 2.8499999 2.8499999
4.9499998 3.1500001 2.55
5.25 3.1500001 2.55
4.9499998 3.45 2.55
5.25 3.45 2.55
4.9499998 3.1500001 2.8499999
5.25 3.1500001 2.8499999
4.9499998 3.45 2.8499999
5.25 3.45 2.8499999
4.9499998 2.55 3.1500001
5.25 2.55 3.1500001
4.9499998 2.8499999 3.1500001
5.25 2.8499999 3.1500001
4.9499998 2.55 3.45
5.25 2.55 3.45
4.9499998 2.8499999 3.45
5.25 2.8499999 3.45
4.9499998 3.1500001 3.1500001
5.25 3.1500001 3.1500001
4.9499998 3.45 3.1500001
5.25 3.45 3.1500001
4.9499998 3.1500001 3.45
5.25 3.1500001 3.45
4.9499998 3.45 3.45
5.25 3.45 3.45
4.9499998 3.75 2.55
5.25 3.75 2.55
4.9499998 4.0500002 2.55
4.9499998 3.75 2.8499999
5.25 3.75 2.8499999
4.9499998 4.3499999 2.55
4.9499998 3.75 3.1500001
5.25 3.75 3.1500001
4.9499998 4.0500002 3.1500001
4.9499998 3.75 3.45
5.25 3.75 3.45
4.9499998 4.3499999 3.1500001
4.9499998 2.55 3.75
5.25 2.55 3.75
4.9499998 2.8499999 3.75
5.25 2.8499999 3.75
4.9499998 2.55 4.0500002
5.25 2.55 4.0500002
4.9499998 2.8499999 4.0500002
5.25 2.8499999 4.0500002
4.9499998 3.1500001 3.75
5.25 3.1500001 3.75
4.9499998 3.45 3.75
5.25 3.45 3.75
4.9499998 3.1500001 4.0500002
5.25 3.1500001 4.0500002
4.9499998 3.45 4.0500002
5.25 3.45 4.0500002
4.9499998 2.55 4.3499999
4.9499998 2.8499999 4.3499999
4.9499998 2.55 4.6500001
5.25 2.55 4.6500001
4.9499998 2.8499999 4.6500001
5.25 2.8499999 4.6500001
4.9499998 3.1500001 4.3499999
5.25 3.1500001 4.3499999
4.9499998 3.45 4.3499999
5.25 3.45 4.3499999
4.9499998 3.1500001 4.6500001
5.25 3.1500001 4.6500001
4.9499998 3.45 4.6500001
5.25 3.45 4.6500001
4.9499998 3.75 3.75
5.25 3.75 3.75
4.9499998 3.75 4.0500002
5.25 3.75 4.0500002
4.9499998 4.0500002 4.0500002
4.9499998 4.3499999 4.0500002
4.9499998 3.75 4.3499999
5.25 3.75 4.3499999
4.9499998 3.75 4.6500001
5.25 3.75 4.6500001
4.9499998 4.0500002 4.6500001
4.9499998 4.3499999 4.6500001
4.6500001 4.9499998 1.05
4.6500001 5.25 1.05
4.6500001 5.8499999 1.05
4.6500001 4.9499998 1.35
4.6500001 5.25 1.35
4.6500001 4.9499998 1.65
4.6500001 5.25 1.65
4.6500001 5.8499999 1.65
4.6500001 4.9499998 1.95
4.6500001 5.25 1.95
4.6500001 5.25 2.25
4.3499999 5.5500002 1.95
4.6500001 5.8499999 1.95
4.3499999 5.8499999 2.25
4.6500001 5.8499999 2.25
4.6500001 5.25 2.55
4.6500001 4.9499998 2.8499999
4.3499999 5.25 2.8499999
4.6500001 5.25 2.8499999
4.3499999 5.8499999 2.55
4.6500001 5.8499999 2.55
4.3499999 5.5500002 2.8499999
4.6500001 5.25 3.1500001
4.6500001 4.9499998 3.45
4.6500001 5.25 3.45
4.3499999 5.8499999 3.1500001
4.6500001 5.8499999 3.1500001
4.3499999 5.8499999 3.45
4.6500001 5.8499999 3.45
4.6500001 4.9499998 3.75
4.6500001 5.25 3.75
4.6500001 5.25 4.0500002
4.3499999 5.5500002 3.75
4.3499999 5.8499999 3.75
4.6500001 5.8499999 3.75
4.6500001 5.8499999 4.0500002
4.3499999 5.25 4.3499999
4.6500001 5.25 4.3499999
4.3499999 4.9499998 4.6500001
4.6500001 4.9499998 4.6500001
4.3499999 5.25 4.6500001
4.6500001 5.25 4.6500001
4.3499999 5.5500002 4.3499999
4.6500001 5.5500002 4.3499999
4.3499999 5.8499999 4.3499999
4.6500001 5.8499999 4.3499999
4.3499999 5.5500002 4.6500001
4.6500001 5.5500002 4.6500001
4.3499999 5.8499999 4.6500001
4.6500001 5.8499999 4.6500001
4.9499998 5.8499999 1.05
5.25 5.8499999 1.05
5.8499999 5.5500002 1.05
5.5500002 5.8499999 1.05
5.8499999 5.8499999 1.05
6.1500001 5.25 1.05
6.4499998 5.25 1.05
6.75 5.25 1.05
7.0500002 5.25 1.05
6.1500001 5.5500002 1.05
6.1500001 5.8499999 1.05
4.9499998 5.8499999 1.35
5.25 5.8499999 1.35
4.9499998 5.8499999 1.65
5.8499999 5.5500002 1.35
5.5500002 5.8499999 1.35
5.8499999 5.8499999 1.35
5.8499999 5.5500002 1.65
5.5500002 5.8499999 1.65
5.8499999 5.8499999 1.65
4.9499998 5.8499999 1.95
5.25 5.8499999 1.95
5.25 5.8499999 2.25
5.8499999 5.5500002 1.95
5.5500002 5.8499999 1.95
5.8499999 5.8499999 1.95
5.5500002 5.8499999 2.25
5.8499999 5.8499999 2.25
6.1500001 5.25 1.35
6.4499998 5.25 1.35
6.1500001 5.25 1.65
6.4499998 5.25 1.65
6.75 5.25 1.35
7.0500002 5.25 1.35
6.75 5.25 1.65
7.0500002 5.25 1.65
6.1500001 5.5500002 1.35
6.1500001 5.8499999 1.35
6.1500001 5.5500002 1.65
6.4499998 5.5500002 1.65
6.1500001 5.8499999 1.65
6.1500001 5.25 1.95
6.4499998 5.25 1.95
6.1500001 5.25 2.25
6.4499998 5.25 2.25
6.75 5.25 1.95
7.0500002 5.25 1.95
6.75 5.25 2.25
7.0500002 5.25 2.25
6.1500001 5.5500002 1.95
6.1500001 5.8499999 1.95
6.1500001 5.5500002 2.25
6.1500001 5.8499999 2.25
5.25 6.1500001 1.35
5.25 6.1500001 1.65
5.5500002 6.1500001 1.35
5.5500002 6.1500001 1.65
5.25 6.1500001 1.95
5.25 6.1500001 2.25
5.5500002 6.1500001 1.95
5.5500002 6.1500001 2.25
7.3499999 5.25 1.05
7.6500001 5.25 1.05
7.9499998 5.25 1.05
8.25 5.25 1.05
8.5500002 5.25 1.05
8.8500004 5.25 1.05
9.1499996 5.25 1.05
9.4499998 5.25 1.05
7.3499999 5.25 1.35
7.6500001 5.25 1.35
7.3499999 5.25 1.65
7.6500001 5.25 1.65
7.9499998 5.25 1.35
8.25 5.25 1.35
7.9499998 5.25 1.65
8.25 5.25 1.65
7.3499999 5.25 1.95
7.6500001 5.25 1.95
7.3499999 5.25 2.25
7.6500001 5.25 2.25
7.9499998 5.25 1.95
8.25 5.25 1.95
7.9499998 5.25 2.25
8.25 5.25 2.25
8.5500002 5.25 1.35
8.8500004 5.25 1.35
8.5500002 5.25 1.65
8.8500004 5.25 1.65
9.1499996 5.25 1.35
9.4499998 5.25 1.35
9.1499996 5.25 1.65
9.4499998 5.25 1.65
8.5500002 5.25 1.95
8.8500004 5.25 1.95
8.5500002 5.25 2.25
8.8500004 5.25 2.25
9.1499996 5.25 1.95
9.4499998 5.25 1.95
9.1499996 5.25 2.25
9.4499998 5.25 2.25
4.9499998 5.8499999 2.55
5.25 5.8499999 2.55
4.9499998 5.8499999 2.8499999
5.25 5.8499999 2.8499999
5.8499999 5.5500002 2.55
5.5500002 5.8499999 2.55
5.8499999 5.8499999 2.55
5.5500002 5.8499999 2.8499999
5.8499999 5.8499999 2.8499999
4.9499998 5.8499999 3.1500001
5.25 5.8499999 3.1500001
4.9499998 5.8499999 3.45
5.25 5.8499999 3.45
5.8499999 5.5500002 3.1500001
5.5500002 5.8499999 3.1500001
5.8499999 5.8499999 3.1500001
5.5500002 5.8499999 3.45
5.8499999 5.8499999 3.45
6.1500001 5.25 2.55
6.4499998 5.25 2.55
6.1500001 5.25 2.8499999
6.4499998 5.25 2.8499999
6.75 5.25 2.55
7.0500002 5.25 2.55
6.75 5.25 2.8499999
7.0500002 5.25 2.8499999
6.1500001 5.5500002 2.55
6.4499998 5.5500002 2.55
6.1500001 5.8499999 2.55
6.1500001 5.5500002 2.8499999
6.1500001 5.8499999 2.8499999
6.1500001 5.25 3.1500001
6.4499998 5.25 3.1500001
6.1500001 5.25 3.45
6.4499998 5.25 3.45
6.75 5.25 3.1500001
7.0500002 5.25 3.1500001
6.75 5.25 3.45
7.0500002 5.25 3.45
6.1500001 5.5500002 3.1500001
6.1500001 5.5500002 3.45
6.4499998 5.5500002 3.45
6.1500001 5.8499999 3.45
5.25 6.1500001 2.8499999
5.5500002 6.1500001 2.55
5.5500002 6.1500001 2.8499999
5.25 6.1500001 3.1500001
5.25 6.1500001 3.45
5.5500002 6.1500001 3.1500001
5.5500002 6.1500001 3.45
5.25 5.8499999 3.75
4.9499998 5.8499999 4.0500002
5.25 5.8499999 4.0500002
5.5500002 5.8499999 3.75
5.8499999 5.8499999 3.75
5.8499999 5.5500002 4.0500002
5.5500002 5.8499999 4.0500002
5.8499999 5.8499999 4.0500002
4.9499998 5.8499999 4.3499999
5.25 5.8499999 4.3499999
4.9499998 5.5500002 4.6500001
5.25 5.5500002 4.6500001
4.9499998 5.8499999 4.6500001
5.25 5.8499999 4.6500001
5.8499999 5.5500002 4.3499999
5.5500002 5.8499999 4.3499999
5.8499999 5.8499999 4.3499999
5.8499999 5.5500002 4.6500001
5.5500002 5.8499999 4.6500001
5.8499999 5.8499999 4.6500001
6.1500001 5.25 3.75
6.4499998 5.25 3.75
6.1500001 5.25 4.0500002
6.4499998 5.25 4.0500002
6.75 5.25 3.75
7.0500002 5.25 3.75
6.75 5.25 4.0500002
7.0500002 5.25 4.0500002
6.1500001 5.5500002 3.75
6.1500001 5.8499999 3.75
6.1500001 5.5500002 4.0500002
6.4499998 5.5500002 4.0500002
6.1500001 5.8499999 4.0500002
6.75 5.5500002 3.75
7.0500002 5.5500002 3.75
6.1500001 5.25 4.3499999
6.4499998 5.25 4.3499999
6.1500001 5.25 4.6500001
6.4499998 5.25 4.6500001
6.75 5.25 4.3499999
7.0500002 5.25 4.3499999
6.75 5.25 4.6500001
7.0500002 5.25 4.6500001
6.1500001 5.5500002 4.3499999
6.1500001 5.8499999 4.3499999
6.1500001 5.5500002 4.6500001
6.4499998 5.5500002 4.6500001
6.1500001 5.8499999 4.6500001
6.75 5.5500002 4.3499999
7.0500002 5.5500002 4.3499999
6.75 5.5500002 4.6500001
7.0500002 5.5500002 4.6500001
5.25 6.1500001 3.75
5.25 6.1500001 4.0500002
5.5500002 6.1500001 3.75
5.5500002 6.1500001 4.0500002
5.25 6.1500001 4.3499999
5.25 6.1500001 4.6500001
5.5500002 6.1500001 4.3499999
5.5500002 6.1500001 4.6500001
7.3499999 5.25 2.55
7.6500001 5.25 2.55
7.3499999 5.25 2.8499999
7.6500001 5.25 2.8499999
7.9499998 5.25 2.55
8.25 5.25 2.55
7.9499998 5.25 2.8499999
8.25 5.25 2.8499999
7.3499999 5.25 3.1500001
7.6500001 5.25 3.1500001
7.3499999 5.25 3.45
7.6500001 5.25 3.45
7.9499998 5.25 3.1500001
8.25 5.25 3.1500001
7.9499998 5.25 3.45
8.25 5.25 3.45
8.5500002 5.25 2.55
8.8500004 5.25 2.55
8.5500002 5.25 2.8499999
8.8500004 5.25 2.8499999
9.1499996 5.25 2.55
9.4499998 5.25 2.55
9.1499996 5.25 2.8499999
9.4499998 5.25 2.8499999
8.5500002 5.25 3.1500001
8.8500004 5.25 3.1500001
8.5500002 5.25 3.45
8.8500004 5.25 3.45
9.1499996 5.25 3.1500001
9.4499998 5.25 3.1500001
9.1499996 5.25 3.45
9.4499998 5.25 3.45
7.3499999 5.25 3.75
7.6500001 5.25 3.75
7.3499999 5.25 4.0500002
7.6500001 5.25 4.0500002
7.9499998 5.25 3.75
8.25 5.25 3.75
7.9499998 5.25 4.0500002
8.25 5.25 4.0500002
7.3499999 5.5500002 4.0500002
7.3499999 5.25 4.3499999
7.6500001 5.25 4.3499999
7.3499999 5.25 4.6500001
7.6500001 5.25 4.6500001
7.9499998 5.25 4.3499999
8.25 5.25 4.3499999
7.9499998 5.25 4.6500001
8.25 5.25 4.6500001
7.3499999 5.5500002 4.6500001
8.5500002 5.25 3.75
8.8500004 5.25 3.75
8.5500002 5.25 4.0500002
8.8500004 5.25 4.0500002
9.1499996 5.25 3.75
9.4499998 5.25 3.75
9.1499996 5.25 4.0500002
9.4499998 5.25 4.0500002
8.5500002 5.25 4.3499999
8.8500004 5.25 4.3499999
8.5500002 5.25 4.6500001
8.8500004 5.25 4.6500001
9.1499996 5.25 4.3499999
9.4499998 5.25 4.3499999
9.1499996 5.25 4.6500001
9.4499998 5.25 4.6500001
4.6500001 0.15000001 4.9499998
4.6500001 0.44999999 4.9499998
4.6500001 0.44999999 5.25
4.6500001 0.75 5.25
4.6500001 1.05 5.25
4.6500001 1.35 5.25
4.6500001 1.65 5.25
4.6500001 1.95 5.25
4.6500001 0.15000001 7.0500002
4.6500001 0.75 7.0500002
4.6500001 1.65 7.0500002
4.6500001 2.55 5.25
4.6500001 2.8499999 5.25
4.6500001 3.1500001 5.25
4.6500001 3.75 4.9499998
4.3499999 4.0500002 4.9499998
4.6500001 4.0500002 4.9499998
4.3499999 3.75 5.25
4.6500001 3.75 5.25
4.3499999 4.0500002 5.25
4.6500001 4.0500002 5.25
4.0500002 4.3499999 4.9499998
4.0500002 4.6500001 4.9499998
4.0500002 4.6500001 5.25
4.3499999 4.3499999 4.9499998
4.6500001 4.3499999 4.9499998
4.3499999 4.6500001 4.9499998
4.6500001 4.6500001 4.9499998
4.3499999 4.3499999 5.25
4.6500001 4.3499999 5.25
4.3499999 4.6500001 5.25
4.6500001 4.6500001 5.25
4.6500001 3.75 5.5500002
4.3499999 4.0500002 5.5500002
4.6500001 4.0500002 5.5500002
4.6500001 3.75 5.8499999
4.3499999 4.0500002 5.8499999
4.6500001 4.0500002 5.8499999
4.0500002 4.3499999 5.5500002
4.0500002 4.6500001 5.5500002
4.0500002 4.6500001 5.8499999
4.3499999 4.3499999 5.5500002
4.6500001 4.3499999 5.5500002
4.3499999 4.6500001 5.5500002
4.6500001 4.6500001 5.5500002
4.3499999 4.3499999 5.8499999
4.6500001 4.3499999 5.8499999
4.3499999 4.6500001 5.8499999
4.6500001 3.75 6.1500001
4.3499999 4.0500002 6.1500001
4.6500001 4.0500002 6.1500001
4.6500001 3.75 6.4499998
4.3499999 4.0500002 6.4499998
4.6500001 4.0500002 6.4499998
4.0500002 4.6500001 6.1500001
4.0500002 4.6500001 6.4499998
4.3499999 4.3499999 6.1500001
4.6500001 4.3499999 6.1500001
4.3499999 4.6500001 6.1500001
4.6500001 4.6500001 6.1500001
4.3499999 4.3499999 6.4499998
4.6500001 4.3499999 6.4499998
4.3499999 4.6500001 6.4499998
4.6500001 4.6500001 6.4499998
4.6500001 3.75 6.75
4.3499999 4.0500002 6.75
4.6500001 4.0500002 6.75
4.6500001 3.75 7.0500002
4.3499999 4.0500002 7.0500002
4.6500001 4.0500002 7.0500002
4.0500002 4.6500001 6.75
4.0500002 4.6500001 7.0500002
4.3499999 4.3499999 6.75
4.6500001 4.3499999 6.75
4.3499999 4.6500001 6.75
4.3499999 4.3499999 7.0500002
4.6500001 4.3499999 7.0500002
4.3499999 4.6500001 7.0500002
4.6500001 1.05 7.3499999
4.6500001 2.55 7.3499999
4.6500001 3.45 7.3499999
4.3499999 3.75 7.3499999
4.6500001 3.75 7.3499999
4.3499999 4.0500002 7.3499999
4.6500001 4.0500002 7.3499999
4.6500001 3.75 7.6500001
4.3499999 4.0500002 7.6500001
4.6500001 4.0500002 7.6500001
4.0500002 4.6500001 7.3499999
4.0500002 4.6500001 7.6500001
4.3499999 4.3499999 7.3499999
4.6500001 4.3499999 7.3499999
4.3499999 4.6500001 7.3499999
4.3499999 4.3499999 7.6500001
4.6500001 4.3499999 7.6500001
4.3499999 4.6500001 7.6500001
4.6500001 4.6500001 7.6500001
4.6500001 3.75 7.9499998
4.3499999 4.0500002 7.9499998
4.6500001 4.0500002 7.9499998
4.6500001 3.75 8.25
4.3499999 4.0500002 8.25
4.6500001 4.0500002 8.25
4.0500002 4.6500001 7.9499998
4.0500002 4.6500001 8.25
4.3499999 4.3499999 7.9499998
4.6500001 4.3499999 7.9499998
4.3499999 4.6500001 7.9499998
4.6500001 4.6500001 7.9499998
4.3499999 4.3499999 8.25
4.6500001 4.3499999 8.25
4.3499999 4.6500001 8.25
4.6500001 3.75 8.5500002
4.3499999 4.0500002 8.5500002
4.6500001 4.0500002 8.5500002
4.6500001 3.75 8.8500004
4.3499999 4.0500002 8.8500004
4.6500001 4.0500002 8.8500004
4.0500002 4.6500001 8.5500002
4.0500002 4.6500001 8.8500004
4.3499999 4.3499999 8.5500002
4.6500001 4.3499999 8.5500002
4.3499999 4.6500001 8.5500002
4.3499999 4.3499999 8.8500004
4.6500001 4.3499999 8.8500004
4.3499999 4.6500001 8.8500004
4.6500001 4.6500001 8.8500004
4.6500001 3.75 9.1499996
4.3499999 4.0500002 9.1499996
4.6500001 4.0500002 9.1499996
4.6500001 3.75 9.4499998
4.3499999 4.0500002 9.4499998
4.6500001 4.0500002 9.4499998
4.0500002 4.6500001 9.1499996
4.0500002 4.6500001 9.4499998
4.3499999 4.3499999 9.1499996
4.6500001 4.3499999 9.1499996
4.3499999 4.6500001 9.1499996
4.6500001 4.6500001 9.1499996
4.3499999 4.3499999 9.4499998
4.6500001 4.3499999 9.4499998
4.3499999 4.6500001 9.4499998
4.6500001 4.6500001 9.4499998
4.9499998 0.15000001 4.9499998
5.25 0.15000001 4.9499998
4.9499998 0.44999999 4.9499998
4.9499998 0.15000001 5.25
4.9499998 0.44999999 5.25
5.25 0.44999999 5.25
4.9499998 0.75 4.9499998
4.9499998 1.05 4.9499998
4.9499998 0.75 5.25
5.25 0.75 5.25
4.9499998 1.05 5.25
5.25 1.05 5.25
4.9499998 0.15000001 5.5500002
5.25 0.15000001 5.5500002
4.9499998 0.44999999 5.5500002
4.9499998 0.15000001 5.8499999
5.25 0.15000001 5.8499999
4.9499998 0.44999999 5.8499999
5.25 0.44999999 5.8499999
4.9499998 0.75 5.5500002
4.9499998 1.05 5.5500002
4.9499998 0.75 5.8499999
5.25 0.75 5.8499999
4.9499998 1.05 5.8499999
5.25 1.05 5.8499999
4.9499998 1.35 4.9499998
4.9499998 1.65 4.9499998
4.9499998 1.35 5.25
5.25 1.35 5.25
4.9499998 1.65 5.25
5.25 1.65 5.25
4.9499998 1.95 4.9499998
4.9499998 2.25 4.9499998
4.9499998 1.95 5.25
5.25 1.95 5.25
4.9499998 2.25 5.25
5.25 2.25 5.25
4.9499998 1.35 5.5500002
4.9499998 1.65 5.5500002
4.9499998 1.35 5.8499999
5.25 1.35 5.8499999
4.9499998 1.65 5.8499999
5.25 1.65 5.8499999
4.9499998 1.95 5.5500002
4.9499998 2.25 5.5500002
4.9499998 1.95 5.8499999
5.25 1.95 5.8499999
4.9499998 2.25 5.8499999
5.25 2.25 5.8499999
4.9499998 0.15000001 6.1500001
4.9499998 0.44999999 6.1500001
4.9499998 0.15000001 6.4499998
5.25 0.15000001 6.4499998
4.9499998 0.44999999 6.4499998
5.25 0.44999999 6.4499998
4.9499998 0.75 6.1500001
4.9499998 1.05 6.1500001
4.9499998 0.75 6.4499998
5.25 0.75 6.4499998
4.9499998 1.05 6.4499998
5.25 1.05 6.4499998
4.9499998 0.15000001 6.75
4.9499998 0.44999999 6.75
4.9499998 0.15000001 7.0500002
5.25 0.15000001 7.0500002
4.9499998 0.44999999 7.0500002
5.25 0.44999999 7.0500002
4.9499998 0.75 6.75
4.9499998 1.05 6.75
4.9499998 0.75 7.0500002
5.25 0.75 7.0500002
4.9499998 1.05 7.0500002
5.25 1.05 7.0500002
4.9499998 1.35 6.1500001
4.9499998 1.65 6.1500001
4.9499998 1.35 6.4499998
5.25 1.35 6.4499998
4.9499998 1.65 6.4499998
5.25 1.65 6.4499998
4.9499998 1.95 6.1500001
4.9499998 2.25 6.1500001
4.9499998 1.95 6.4499998
5.25 1.95 6.4499998
4.9499998 2.25 6.4499998
5.25 2.25 6.4499998
4.9499998 1.35 6.75
4.9499998 1.65 6.75
4.9499998 1.35 7.0500002
5.25 1.35 7.0500002
4.9499998 1.65 7.0500002
5.25 1.65 7.0500002
4.9499998 1.95 6.75
4.9499998 2.25 6.75
4.9499998 1.95 7.0500002
5.25 1.95 7.0500002
4.9499998 2.25 7.0500002
5.25 2.25 7.0500002
4.9499998 2.55 4.9499998
4.9499998 2.8499999 4.9499998
4.9499998 2.55 5.25
5.25 2.55 5.25
4.9499998 2.8499999 5.25
5.25 2.8499999 5.25
4.9499998 3.1500001 4.9499998
4.9499998 3.45 4.9499998
4.9499998 3.1500001 5.25
5.25 3.1500001 5.25
4.9499998 3.45 5.25
5.25 3.45 5.25
4.9499998 2.55 5.5500002
4.9499998 2.8499999 5.5500002
4.9499998 2.55 5.8499999
5.25 2.55 5.8499999
4.9499998 2.8499999 5.8499999
5.25 2.8499999 5.8499999
4.9499998 3.1500001 5.5500002
4.9499998 3.45 5.5500002
4.9499998 3.1500001 5.8499999
5.25 3.1500001 5.8499999
4.9499998 3.45 5.8499999
5.25 3.45 5.8499999
4.9499998 3.75 4.9499998
4.9499998 3.75 5.25
5.25 3.75 5.25
4.9499998 4.0500002 5.25
4.9499998 4.3499999 5.25
4.9499998 3.75 5.5500002
4.9499998 4.0500002 5.5500002
4.9499998 3.75 5.8499999
5.25 3.75 5.8499999
4.9499998 4.0500002 5.8499999
4.9499998 4.3499999 5.8499999
4.9499998 2.55 6.1500001
4.9499998 2.8499999 6.1500001
5.25 2.8499999 6.1500001
4.9499998 2.55 6.4499998
5.25 2.55 6.4499998
4.9499998 2.8499999 6.4499998
5.25 2.8499999 6.4499998
4.9499998 3.1500001 6.1500001
4.9499998 3.45 6.1500001
5.25 3.45 6.1500001
4.9499998 3.1500001 6.4499998
5.25 3.1500001 6.4499998
4.9499998 3.45 6.4499998
5.25 3.45 6.4499998
4.9499998 2.55 6.75
4.9499998 2.8499999 6.75
4.9499998 2.55 7.0500002
5.25 2.55 7.0500002
4.9499998 2.8499999 7.0500002
5.25 2.8499999 7.0500002
4.9499998 3.1500001 6.75
4.9499998 3.45 6.75
4.9499998 3.1500001 7.0500002
5.25 3.1500001 7.0500002
4.9499998 3.45 7.0500002
5.25 3.45 7.0500002
4.9499998 3.75 6.1500001
5.25 3.75 6.1500001
4.9499998 4.0500002 6.1500001
4.9499998 3.75 6.4499998
5.25 3.75 6.4499998
4.9499998 3.75 6.75
4.9499998 4.0500002 6.75
4.9499998 3.75 7.0500002
5.25 3.75 7.0500002
4.9499998 4.3499999 6.75
4.9499998 0.15000001 7.3499999
4.9499998 0.44999999 7.3499999
4.9499998 0.15000001 7.6500001
5.25 0.15000001 7.6500001
4.9499998 0.44999999 7.6500001
5.25 0.44999999 7.6500001
4.9499998 0.75 7.3499999
4.9499998 1.05 7.3499999
4.9499998 0.75 7.6500001
5.25 0.75 7.6500001
4.9499998 1.05 7.6500001
5.25 1.05 7.6500001
4.9499998 0.15000001 7.9499998
5.25 0.15000001 7.9499998
4.9499998 0.44999999 7.9499998
5.25 0.44999999 7.9499998
4.9499998 0.15000001 8.25
5.25 0.15000001 8.25
4.9499998 0.44999999 8.25
5.25 0.44999999 8.25
4.9499998 0.75 7.9499998
5.25 0.75 7.9499998
4.9499998 1.05 7.9499998
5.25 1.05 7.9499998
4.9499998 0.75 8.25
5.25 0.75 8.25
4.9499998 1.05 8.25
5.25 1.05 8.25
4.9499998 1.35 7.3499999
4.9499998 1.65 7.3499999
4.9499998 1.35 7.6500001
5.25 1.35 7.6500001
4.9499998 1.65 7.6500001
5.25 1.65 7.6500001
4.9499998 1.95 7.3499999
4.9499998 2.25 7.3499999
4.9499998 1.95 7.6500001
5.25 1.95 7.6500001
4.9499998 2.25 7.6500001
5.25 2.25 7.6500001
4.9499998 1.35 7.9499998
4.9499998 1.65 7.9499998
4.9499998 1.35 8.25
5.25 1.35 8.25
4.9499998 1.65 8.25
5.25 1.65 8.25
4.9499998 1.95 7.9499998
5.25 1.95 7.9499998
4.9499998 2.25 7.9499998
4.9499998 1.95 8.25
5.25 1.95 8.25
4.9499998 2.25 8.25
5.25 2.25 8.25
4.9499998 0.15000001 8.5500002
5.25 0.15000001 8.5500002
4.9499998 0.44999999 8.5500002
5.25 0.44999999 8.5500002
4.9499998 0.15000001 8.8500004
5.25 0.15000001 8.8500004
4.9499998 0.44999999 8.8500004
5.25 0.44999999 8.8500004
5.8499999 0.44999999 8.8500004
4.9499998 0.75 8.5500002
5.25 0.75 8.5500002
4.9499998 1.05 8.5500002
5.25 1.05 8.5500002
4.9499998 0.75 8.8500004
5.25 0.75 8.8500004
4.9499998 1.05 8.8500004
5.25 1.05 8.8500004
4.9499998 0.15000001 9.1499996
5.25 0.15000001 9.1499996
4.9499998 0.44999999 9.1499996
5.25 0.44999999 9.1499996
4.9499998 0.15000001 9.4499998
5.25 0.15000001 9.4499998
4.9499998 0.44999999 9.4499998
5.25 0.44999999 9.4499998
5.8499999 0.15000001 9.1499996
4.9499998 0.75 9.1499996
5.25 0.75 9.1499996
4.9499998 1.05 9.1499996
5.25 1.05 9.1499996
4.9499998 0.75 9.4499998
5.25 0.75 9.4499998
4.9499998 1.05 9.4499998
5.25 1.05 9.4499998
4.9499998 1.35 8.5500002
5.25 1.35 8.5500002
4.9499998 1.65 8.5500002
5.25 1.65 8.5500002
4.9499998 1.35 8.8500004
5.25 1.35 8.8500004
4.9499998 1.65 8.8500004
5.25 1.65 8.8500004
4.9499998 1.95 8.5500002
4.9499998 2.25 8.5500002
4.9499998 1.95 8.8500004
5.25 1.95 8.8500004
4.9499998 2.25 8.8500004
5.25 2.25 8.8500004
4.9499998 1.35 9.1499996
5.25 1.35 9.1499996
4.9499998 1.65 9.1499996
5.25 1.65 9.1499996
4.9499998 1.35 9.4499998
5.25 1.35 9.4499998
4.9499998 1.65 9.4499998
5.25 1.65 9.4499998
4.9499998 1.95 9.1499996
5.25 1.95 9.1499996
4.9499998 2.25 9.1499996
5.25 2.25 9.1499996
4.9499998 1.95 9.4499998
5.25 1.95 9.4499998
4.9499998 2.25 9.4499998
5.25 2.25 9.4499998
4.9499998 2.55 7.3499999
4.9499998 2.8499999 7.3499999
4.9499998 2.55 7.6500001
5.25 2.55 7.6500001
4.9499998 2.8499999 7.6500001
5.25 2.8499999 7.6500001
4.9499998 3.1500001 7.3499999
4.9499998 3.45 7.3499999
4.9499998 3.1500001 7.6500001
5.25 3.1500001 7.6500001
4.9499998 3.45 7.6500001
5.25 3.45 7.6500001
4.9499998 2.55 7.9499998
4.9499998 2.8499999 7.9499998
4.9499998 2.55 8.25
5.25 2.55 8.25
4.9499998 2.8499999 8.25
5.25 2.8499999 8.25
4.9499998 3.1500001 7.9499998
4.9499998 3.45 7.9499998
4.9499998 3.1500001 8.25
5.25 3.1500001 8.25
4.9499998 3.45 8.25
5.25 3.45 8.25
4.9499998 3.75 7.3499999
5.25 3.75 7.3499999
4.9499998 4.0500002 7.3499999
4.9499998 3.75 7.6500001
5.25 3.75 7.6500001
4.9499998 4.0500002 7.6500001
4.9499998 4.3499999 7.3499999
4.9499998 3.75 7.9499998
5.25 3.75 7.9499998
4.9499998 4.0500002 7.9499998
4.9499998 3.75 8.25
5.25 3.75 8.25
4.9499998 4.0500002 8.25
4.9499998 4.3499999 7.9499998
4.9499998 2.55 8.5500002
5.25 2.55 8.5500002
4.9499998 2.8499999 8.5500002
5.25 2.8499999 8.5500002
4.9499998 2.55 8.8500004
5.25 2.55 8.8500004
4.9499998 2.8499999 8.8500004
5.25 2.8499999 8.8500004
4.9499998 3.1500001 8.5500002
5.25 3.1500001 8.5500002
4.9499998 3.45 8.5500002
5.25 3.45 8.5500002
4.9499998 3.1500001 8.8500004
5.25 3.1500001 8.8500004
4.9499998 3.45 8.8500004
5.25 3.45 8.8500004
4.9499998 2.55 9.1499996
5.25 2.55 9.1499996
4.9499998 2.8499999 9.1499996
5.25 2.8499999 9.1499996
4.9499998 2.55 9.4499998
5.25 2.55 9.4499998
4.9499998 2.8499999 9.4499998
5.25 2.8499999 9.4499998
4.9499998 3.1500001 9.1499996
5.25 3.1500001 9.1499996
4.9499998 3.45 9.1499996
5.25 3.45 9.1499996
4.9499998 3.1500001 9.4499998
5.25 3.1500001 9.4499998
4.9499998 3.45 9.4499998
5.25 3.45 9.4499998
4.9499998 3.75 8.5500002
5.25 3.75 8.5500002
4.9499998 4.0500002 8.5500002
4.9499998 3.75 8.8500004
5.25 3.75 8.8500004
4.9499998 4.0500002 8.8500004
4.9499998 4.3499999 8.5500002
4.9499998 3.75 9.1499996
5.25 3.75 9.1499996
4.9499998 4.0500002 9.1499996
4.9499998 3.75 9.4499998
5.25 3.75 9.4499998
4.9499998 4.0500002 9.4499998
4.9499998 4.3499999 9.1499996
4.3499999 4.9499998 4.9499998
4.6500001 4.9499998 4.9499998
4.3499999 5.25 4.9499998
4.6500001 5.25 4.9499998
4.3499999 5.25 5.25
4.6500001 5.25 5.25
4.3499999 5.5500002 4.9499998
4.6500001 5.5500002 4.9499998
4.3499999 5.8499999 4.9499998
4.3499999 5.5500002 5.25
4.6500001 5.5500002 5.25
4.3499999 5.8499999 5.25
4.6500001 5.8499999 5.25
4.3499999 4.9499998 5.5500002
4.6500001 4.9499998 5.5500002
4.3499999 5.25 5.5500002
4.6500001 5.25 5.5500002
4.6500001 5.25 5.8499999
4.3499999 5.5500002 5.5500002
4.6500001 5.5500002 5.5500002
4.3499999 5.8499999 5.5500002
4.6500001 5.8499999 5.5500002
4.3499999 5.5500002 5.8499999
4.6500001 5.5500002 5.8499999
4.3499999 5.8499999 5.8499999
4.6500001 5.8499999 5.8499999
4.3499999 4.9499998 6.1500001
4.6500001 4.9499998 6.1500001
4.3499999 5.25 6.1500001
4.6500001 5.25 6.1500001
4.3499999 4.9499998 6.4499998
4.6500001 5.25 6.4499998
4.3499999 5.5500002 6.1500001
4.6500001 5.5500002 6.1500001
4.3499999 5.8499999 6.1500001
4.6500001 5.8499999 6.1500001
4.3499999 5.5500002 6.4499998
4.6500001 5.5500002 6.4499998
4.3499999 5.8499999 6.4499998
4.6500001 5.8499999 6.4499998
4.3499999 5.25 6.75
4.6500001 5.25 6.75
4.6500001 4.9499998 7.0500002
4.3499999 5.25 7.0500002
4.6500001 5.25 7.0500002
4.3499999 5.5500002 6.75
4.6500001 5.5500002 6.75
4.3499999 5.8499999 6.75
4.6500001 5.8499999 6.75
4.3499999 5.5500002 7.0500002
4.6500001 5.5500002 7.0500002
4.3499999 5.8499999 7.0500002
4.6500001 5.8499999 7.0500002
4.3499999 4.9499998 7.3499999
4.6500001 4.9499998 7.3499999
4.3499999 5.25 7.3499999
4.6500001 5.25 7.3499999
4.6500001 4.9499998 7.6500001
4.6500001 5.25 7.6500001
4.3499999 5.5500002 7.3499999
4.6500001 5.5500002 7.3499999
4.3499999 5.8499999 7.3499999
4.6500001 5.8499999 7.3499999
4.3499999 5.5500002 7.6500001
4.6500001 5.5500002 7.6500001
4.3499999 5.8499999 7.6500001
4.6500001 5.8499999 7.6500001
4.3499999 4.9499998 7.9499998
4.6500001 4.9499998 7.9499998
4.6500001 5.25 7.9499998
4.3499999 4.9499998 8.25
4.6500001 5.25 8.25
4.3499999 5.5500002 7.9499998
4.6500001 5.5500002 7.9499998
4.3499999 5.8499999 7.9499998
4.6500001 5.8499999 7.9499998
4.3499999 5.5500002 8.25
4.6500001 5.5500002 8.25
4.3499999 5.8499999 8.25
4.6500001 5.8499999 8.25
4.6500001 4.9499998 8.5500002
4.6500001 5.25 8.5500002
4.3499999 4.9499998 8.8500004
4.6500001 4.9499998 8.8500004
4.6500001 5.25 8.8500004
4.3499999 5.5500002 8.5500002
4.6500001 5.5500002 8.5500002
4.3499999 5.8499999 8.5500002
4.6500001 5.8499999 8.5500002
4.3499999 5.5500002 8.8500004
4.6500001 5.5500002 8.8500004
4.3499999 5.8499999 8.8500004
4.6500001 5.8499999 8.8500004
4.3499999 4.9499998 9.1499996
4.6500001 4.9499998 9.1499996
4.6500001 5.25 9.1499996
4.3499999 4.9499998 9.4499998
4.6500001 4.9499998 9.4499998
4.6500001 5.25 9.4499998
4.3499999 5.5500002 9.1499996
4.6500001 5.5500002 9.1499996
4.3499999 5.8499999 9.1499996
4.6500001 5.8499999 9.1499996
4.3499999 5.5500002 9.4499998
4.6500001 5.5500002 9.4499998
4.3499999 5.8499999 9.4499998
4.6500001 5.8499999 9.4499998
4.9499998 5.8499999 4.9499998
5.25 5.8499999 4.9499998
4.9499998 5.5500002 5.25
4.9499998 5.8499999 5.25
5.25 5.8499999 5.25
5.5500002 5.5500002 4.9499998
5.8499999 5.5500002 4.9499998
5.5500002 5.8499999 4.9499998
5.8499999 5.8499999 4.9499998
5.8499999 5.5500002 5.25
5.5500002 5.8499999 5.25
5.8499999 5.8499999 5.25
4.9499998 5.8499999 5.5500002
5.25 5.8499999 5.5500002
4.9499998 5.5500002 5.8499999
5.25 5.5500002 5.8499999
4.9499998 5.8499999 5.8499999
5.25 5.8499999 5.8499999
5.5500002 5.5500002 5.5500002
5.8499999 5.5500002 5.5500002
5.5500002 5.8499999 5.5500002
5.8499999 5.8499999 5.5500002
5.8499999 5.5500002 5.8499999
5.5500002 5.8499999 5.8499999
5.8499999 5.8499999 5.8499999
6.1500001 5.25 4.9499998
6.4499998 5.25 4.9499998
6.1500001 5.25 5.25
6.4499998 5.25 5.25
6.75 5.25 4.9499998
7.0500002 5.25 4.9499998
6.75 5.25 5.25
7.0500002 5.25 5.25
6.1500001 5.5500002 4.9499998
6.4499998 5.5500002 4.9499998
6.1500001 5.8499999 4.9499998
6.1500001 5.5500002 5.25
6.4499998 5.5500002 5.25
6.1500001 5.8499999 5.25
6.75 5.5500002 5.25
7.0500002 5.5500002 5.25
6.1500001 5.25 5.5500002
6.4499998 5.25 5.5500002
6.1500001 5.25 5.8499999
6.4499998 5.25 5.8499999
6.75 5.25 5.5500002
7.0500002 5.25 5.5500002
6.75 5.25 5.8499999
7.0500002 5.25 5.8499999
6.1500001 5.5500002 5.5500002
6.4499998 5.5500002 5.5500002
6.1500001 5.8499999 5.5500002
6.1500001 5.5500002 5.8499999
6.1500001 5.8499999 5.8499999
6.75 5.5500002 5.5500002
5.25 6.1500001 4.9499998
5.25 6.1500001 5.25
5.5500002 6.1500001 4.9499998
5.5500002 6.1500001 5.25
5.25 6.1500001 5.5500002
5.25 6.1500001 5.8499999
5.5500002 6.1500001 5.5500002
5.5500002 6.1500001 5.8499999
4.9499998 5.8499999 6.1500001
5.25 5.8499999 6.1500001
4.9499998 5.5500002 6.4499998
5.25 5.5500002 6.4499998
4.9499998 5.8499999 6.4499998
5.25 5.8499999 6.4499998
5.5500002 5.5500002 6.1500001
5.8499999 5.5500002 6.1500001
5.5500002 5.8499999 6.1500001
5.8499999 5.8499999 6.1500001
5.5500002 5.8499999 6.4499998
5.8499999 5.8499999 6.4499998
4.9499998 5.5500002 6.75
5.25 5.5500002 6.75
4.9499998 5.8499999 6.75
5.25 5.8499999 6.75
4.9499998 5.5500002 7.0500002
5.25 5.5500002 7.0500002
4.9499998 5.8499999 7.0500002
5.25 5.8499999 7.0500002
5.8499999 5.5500002 6.75
5.5500002 5.8499999 6.75
5.8499999 5.8499999 6.75
5.8499999 5.5500002 7.0500002
5.5500002 5.8499999 7.0500002
5.8499999 5.8499999 7.0500002
6.1500001 5.25 6.1500001
6.4499998 5.25 6.1500001
6.1500001 5.25 6.4499998
6.4499998 5.25 6.4499998
6.75 5.25 6.1500001
7.0500002 5.25 6.1500001
6.75 5.25 6.4499998
7.0500002 5.25 6.4499998
6.1500001 5.5500002 6.1500001
6.1500001 5.8499999 6.1500001
6.1500001 5.5500002 6.4499998
6.1500001 5.8499999 6.4499998
6.1500001 5.25 6.75
6.4499998 5.25 6.75
6.1500001 5.25 7.0500002
6.4499998 5.25 7.0500002
6.75 5.25 6.75
7.0500002 5.25 6.75
6.75 5.25 7.0500002
7.0500002 5.25 7.0500002
6.1500001 5.5500002 6.75
6.1500001 5.8499999 6.75
6.1500001 5.5500002 7.0500002
6.1500001 5.8499999 7.0500002
6.75 5.5500002 6.75
7.0500002 5.5500002 7.0500002
5.25 6.1500001 6.4499998
5.5500002 6.1500001 6.1500001
5.5500002 6.1500001 6.4499998
5.25 6.1500001 6.75
5.25 6.1500001 7.0500002
5.5500002 6.1500001 6.75
5.5500002 6.1500001 7.0500002
7.3499999 5.25 4.9499998
7.6500001 5.25 4.9499998
7.3499999 5.25 5.25
7.6500001 5.25 5.25
7.9499998 5.25 4.9499998
8.25 5.25 4.9499998
7.9499998 5.25 5.25
8.25 5.25 5.25
7.3499999 5.5500002 4.9499998
7.6500001 5.5500002 5.25
7.9499998 5.5500002 4.9499998
8.25 5.5500002 4.9499998
7.9499998 5.5500002 5.25
8.25 5.5500002 5.25
7.3499999 5.25 5.5500002
7.6500001 5.25 5.5500002
7.3499999 5.25 5.8499999
7.6500001 5.25 5.8499999
7.9499998 5.25 5.5500002
8.25 5.25 5.5500002
7.9499998 5.25 5.8499999
8.25 5.25 5.8499999
7.9499998 5.5500002 5.5500002
8.5500002 5.25 4.9499998
8.8500004 5.25 4.9499998
8.5500002 5.25 5.25
8.8500004 5.25 5.25
9.1499996 5.25 4.9499998
9.4499998 5.25 4.9499998
9.1499996 5.25 5.25
9.4499998 5.25 5.25
8.8500004 5.5500002 4.9499998
8.8500004 5.5500002 5.25
9.1499996 5.5500002 4.9499998
9.4499998 5.5500002 4.9499998
9.1499996 5.5500002 5.25
9.4499998 5.5500002 5.25
8.5500002 5.25 5.5500002
8.8500004 5.25 5.5500002
8.5500002 5.25 5.8499999
8.8500004 5.25 5.8499999
9.1499996 5.25 5.5500002
9.4499998 5.25 5.5500002
9.1499996 5.25 5.8499999
9.4499998 5.25 5.8499999
7.3499999 5.25 6.1500001
7.6500001 5.25 6.1500001
7.3499999 5.25 6.4499998
7.6500001 5.25 6.4499998
7.9499998 5.25 6.1500001
8.25 5.25 6.1500001
7.9499998 5.25 6.4499998
8.25 5.25 6.4499998
7.3499999 5.25 6.75
7.6500001 5.25 6.75
7.3499999 5.25 7.0500002
7.6500001 5.25 7.0500002
7.9499998 5.25 6.75
8.25 5.25 6.75
7.9499998 5.25 7.0500002
8.25 5.25 7.0500002
7.3499999 5.5500002 7.0500002
7.6500001 5.5500002 7.0500002
7.9499998 5.5500002 7.0500002
8.5500002 5.25 6.1500001
8.8500004 5.25 6.1500001
8.5500002 5.25 6.4499998
8.8500004 5.25 6.4499998
9.1499996 5.25 6.1500001
9.4499998 5.25 6.1500001
9.1499996 5.25 6.4499998
9.4499998 5.25 6.4499998
8.5500002 5.25 6.75
8.8500004 5.25 6.75
8.5500002 5.25 7.0500002
8.8500004 5.25 7.0500002
9.1499996 5.25 6.75
9.4499998 5.25 6.75
9.1499996 5.25 7.0500002
9.4499998 5.25 7.0500002
8.5500002 5.5500002 7.0500002
9.1499996 5.5500002 7.0500002
4.9499998 5.5500002 7.3499999
5.25 5.5500002 7.3499999
4.9499998 5.8499999 7.3499999
5.25 5.8499999 7.3499999
4.9499998 5.5500002 7.6500001
5.25 5.5500002 7.6500001
4.9499998 5.8499999 7.6500001
5.25 5.8499999 7.6500001
5.5500002 5.5500002 7.3499999
5.8499999 5.5500002 7.3499999
5.5500002 5.8499999 7.3499999
5.8499999 5.8499999 7.3499999
5.8499999 5.5500002 7.6500001
5.5500002 5.8499999 7.6500001
5.8499999 5.8499999 7.6500001
4.9499998 5.5500002 7.9499998
5.25 5.5500002 7.9499998
4.9499998 5.8499999 7.9499998
5.25 5.8499999 7.9499998
4.9499998 5.5500002 8.25
5.25 5.5500002 8.25
4.9499998 5.8499999 8.25
5.25 5.8499999 8.25
5.8499999 5.5500002 7.9499998
5.5500002 5.8499999 7.9499998
5.8499999 5.8499999 7.9499998
5.5500002 5.5500002 8.25
5.8499999 5.5500002 8.25
5.5500002 5.8499999 8.25
5.8499999 5.8499999 8.25
6.1500001 5.25 7.3499999
6.4499998 5.25 7.3499999
6.1500001 5.25 7.6500001
6.4499998 5.25 7.6500001
6.75 5.25 7.3499999
7.0500002 5.25 7.3499999
6.75 5.25 7.6500001
7.0500002 5.25 7.6500001
6.1500001 5.5500002 7.3499999
6.4499998 5.5500002 7.3499999
6.1500001 5.8499999 7.3499999
6.1500001 5.5500002 7.6500001
6.75 5.5500002 7.3499999
6.1500001 5.25 7.9499998
6.4499998 5.25 7.9499998
6.1500001 5.25 8.25
6.4499998 5.25 8.25
6.75 5.25 7.9499998
