# .PCD v0.7 - Point Cloud Data file format
VERSION 0.7
FIELDS x y z
SIZE 4 4 4
TYPE F F F
COUNT 1 1 1
WIDTH 2895
HEIGHT 1
VIEWPOINT 0 0 0 1 0 0 0
POINTS 2895
DATA ascii
7.25 -0.75 76.75
7.25 -0.25 76.75
7.25 -1.75 77.25
7.25 -1.25 77.25
7.25 -1.75 77.75
7.25 -1.25 77.75
7.25 -0.75 77.25
7.25 -0.25 77.25
7.25 -0.75 77.75
7.25 -0.25 77.75
7.25 -2.75 78.25
7.75 -2.75 78.25
7.25 -2.25 78.25
7.25 -2.75 78.75
7.75 -2.75 78.75
7.25 -2.25 78.75
7.25 -2.75 79.25
7.75 -2.75 79.25
7.25 -2.25 79.25
7.25 -2.75 79.75
7.75 -2.75 79.75
7.25 -2.25 79.75
7.25 -1.75 78.25
7.25 -1.25 78.25
7.25 -1.75 78.75
7.25 -1.25 78.75
7.25 -0.75 78.25
7.25 -0.25 78.25
7.25 -0.75 78.75
7.25 -0.25 78.75
7.25 -1.75 79.25
7.25 -1.25 79.25
7.25 -1.75 79.75
7.25 -1.25 79.75
7.25 -0.75 79.25
7.25 -0.25 79.25
7.25 -0.75 79.75
7.25 -0.25 79.75
8.25 -4.25 72.25
8.75 -4.25 72.25
9.25 -4.25 72.25
9.75 -4.25 72.25
10.25 -4.25 72.25
10.75 -4.25 72.25
10.75 -4.25 72.75
11.25 -4.25 72.25
11.75 -4.25 72.25
11.25 -4.25 72.75
11.75 -4.25 72.75
12.25 -4.25 72.25
12.75 -4.25 72.25
12.25 -4.25 72.75
12.75 -4.25 72.75
13.25 -4.25 72.25
13.75 -4.25 72.25
13.25 -4.25 72.75
13.75 -4.25 72.75
8.25 -3.75 72.25
8.75 -3.75 72.25
8.25 -3.75 72.75
8.75 -3.75 72.75
9.25 -3.75 72.25
9.75 -3.75 72.25
9.25 -3.75 72.75
9.75 -3.75 72.75
8.25 -3.75 73.25
8.75 -3.75 73.25
8.25 -3.25 73.25
8.25 -3.75 73.75
8.75 -3.75 73.75
8.25 -3.25 73.75
8.75 -3.25 73.75
9.25 -3.75 73.25
9.75 -3.75 73.25
9.25 -3.75 73.75
9.75 -3.75 73.75
9.25 -3.25 73.75
9.75 -3.25 73.75
10.25 -3.75 72.25
10.25 -3.75 72.75
10.75 -3.75 72.75
11.25 -3.75 72.75
11.75 -3.75 72.75
10.25 -3.75 73.25
10.75 -3.75 73.25
10.25 -3.75 73.75
10.75 -3.75 73.75
10.25 -3.25 73.75
10.75 -3.25 73.75
11.25 -3.75 73.25
11.75 -3.75 73.25
11.25 -3.75 73.75
11.75 -3.75 73.75
11.25 -3.25 73.75
11.75 -3.25 73.75
8.25 -3.25 74.25
8.75 -3.25 74.25
8.25 -3.25 74.75
8.75 -3.25 74.75
9.25 -3.25 74.25
9.75 -3.25 74.25
9.25 -3.25 74.75
9.75 -3.25 74.75
8.25 -3.25 75.25
8.75 -3.25 75.25
8.75 -3.25 75.75
9.25 -3.25 75.25
9.75 -3.25 75.25
9.25 -3.25 75.75
9.75 -3.25 75.75
8.25 -2.75 75.25
8.75 -2.75 75.25
8.25 -2.75 75.75
8.75 -2.75 75.75
9.25 -2.75 75.25
9.25 -2.75 75.75
9.75 -2.75 75.75
10.25 -3.25 74.25
10.75 -3.25 74.25
10.25 -3.25 74.75
10.75 -3.25 74.75
11.25 -3.75 74.25
11.75 -3.75 74.25
11.25 -3.25 74.25
11.75 -3.25 74.25
11.25 -3.25 74.75
11.75 -3.25 74.75
10.25 -3.25 75.25
10.75 -3.25 75.25
10.25 -3.25 75.75
10.75 -3.25 75.75
11.25 -3.25 75.25
11.75 -3.25 75.25
11.25 -3.25 75.75
11.75 -3.25 75.75
10.25 -2.75 75.75
10.75 -2.75 75.75
12.25 -3.75 72.75
12.75 -3.75 72.75
13.75 -3.75 72.25
13.75 -3.25 72.25
13.25 -3.75 72.75
13.75 -3.75 72.75
13.75 -3.25 72.75
13.75 -2.75 72.25
13.75 -2.25 72.25
13.75 -2.75 72.75
13.75 -2.25 72.75
12.25 -3.75 73.25
12.75 -3.75 73.25
12.25 -3.75 73.75
12.75 -3.75 73.75
13.25 -3.75 73.25
13.75 -3.75 73.25
13.25 -3.25 73.25
13.75 -3.25 73.25
13.25 -3.75 73.75
13.25 -3.25 73.75
13.25 -2.75 73.25
13.75 -2.75 73.25
13.25 -2.25 73.25
13.75 -2.25 73.25
13.25 -2.75 73.75
13.25 -2.25 73.75
14.25 -3.25 72.25
14.25 -2.75 72.25
14.25 -2.25 72.25
13.75 -1.75 72.25
13.75 -1.25 72.25
13.75 -1.75 72.75
13.75 -1.25 72.75
13.75 -0.75 72.25
13.75 -0.25 72.25
13.75 -0.75 72.75
13.75 -0.25 72.75
13.25 -1.75 73.25
13.75 -1.75 73.25
13.75 -1.25 73.25
13.25 -1.75 73.75
13.75 -1.75 73.75
13.25 -1.25 73.75
13.75 -1.25 73.75
13.75 -0.75 73.25
13.75 -0.25 73.25
13.25 -0.75 73.75
13.75 -0.75 73.75
13.25 -0.25 73.75
13.75 -0.25 73.75
14.25 -1.75 72.25
14.25 -1.25 72.25
14.25 -0.75 72.25
14.25 -0.25 72.25
12.25 -3.75 74.25
12.75 -3.75 74.25
12.25 -3.25 74.25
12.75 -3.25 74.25
12.25 -3.25 74.75
12.75 -3.25 74.75
13.25 -3.75 74.25
13.25 -3.25 74.25
13.25 -3.25 74.75
13.25 -2.75 74.25
13.25 -2.25 74.25
13.25 -2.75 74.75
13.25 -2.25 74.75
12.25 -3.25 75.25
12.75 -3.25 75.25
12.25 -3.25 75.75
12.75 -3.25 75.75
13.25 -3.25 75.25
12.75 -2.75 75.25
12.75 -2.25 75.25
12.75 -2.75 75.75
12.75 -2.25 75.75
13.25 -2.75 75.25
13.25 -2.25 75.25
13.25 -1.75 74.25
13.25 -1.25 74.25
13.25 -1.75 74.75
13.25 -1.25 74.75
13.25 -0.75 74.25
13.25 -0.25 74.25
13.25 -0.75 74.75
13.25 -0.25 74.75
12.75 -1.75 75.25
12.75 -1.25 75.25
12.75 -1.75 75.75
12.75 -1.25 75.75
13.25 -1.75 75.25
13.25 -1.25 75.25
12.75 -0.75 75.75
12.75 -0.25 75.75
13.25 -0.75 75.25
13.25 -0.25 75.25
13.25 -0.75 75.75
13.25 -0.25 75.75
8.25 -3.25 76.25
8.75 -3.25 76.25
8.25 -3.25 76.75
8.75 -3.25 76.75
9.25 -3.25 76.25
9.75 -3.25 76.25
9.25 -3.25 76.75
9.75 -3.25 76.75
8.25 -2.75 76.25
8.75 -2.75 76.25
8.25 -2.75 76.75
8.75 -2.75 76.75
9.25 -2.75 76.25
9.75 -2.75 76.25
9.25 -2.75 76.75
9.75 -2.75 76.75
9.75 -3.25 77.25
8.25 -2.75 77.25
8.75 -2.75 77.25
8.25 -2.75 77.75
8.75 -2.75 77.75
9.25 -2.75 77.25
9.75 -2.75 77.25
9.25 -2.75 77.75
9.75 -2.75 77.75
10.25 -3.25 76.25
10.75 -3.25 76.25
10.25 -3.25 76.75
10.75 -3.25 76.75
11.25 -3.25 76.25
11.75 -3.25 76.25
11.25 -3.25 76.75
11.75 -3.25 76.75
10.25 -2.75 76.25
10.75 -2.75 76.25
10.25 -2.75 76.75
10.75 -2.75 76.75
11.25 -2.75 76.25
11.75 -2.75 76.25
11.25 -2.75 76.75
10.25 -3.25 77.25
10.75 -3.25 77.25
10.25 -3.25 77.75
10.75 -3.25 77.75
11.25 -3.25 77.25
11.75 -3.25 77.25
11.25 -3.25 77.75
11.75 -3.25 77.75
10.25 -2.75 77.25
10.75 -2.75 77.25
10.25 -2.75 77.75
10.75 -2.75 77.75
11.25 -2.75 77.25
11.25 -2.75 77.75
8.25 -2.75 78.25
8.75 -2.75 78.25
8.25 -2.75 78.75
8.75 -2.75 78.75
9.25 -2.75 78.25
9.75 -2.75 78.25
9.25 -2.75 78.75
9.75 -2.75 78.75
9.75 -3.25 79.25
8.25 -2.75 79.25
8.75 -2.75 79.25
8.25 -2.75 79.75
8.75 -2.75 79.75
9.25 -2.75 79.25
9.75 -2.75 79.25
9.25 -2.75 79.75
9.75 -2.75 79.75
10.25 -3.25 78.25
10.75 -3.25 78.25
10.25 -3.25 78.75
10.75 -3.25 78.75
11.25 -3.25 78.25
11.75 -3.25 78.25
11.25 -3.25 78.75
11.75 -3.25 78.75
10.25 -2.75 78.25
10.75 -2.75 78.25
10.25 -2.75 78.75
10.75 -2.75 78.75
11.25 -2.75 78.25
10.25 -3.25 79.25
10.75 -3.25 79.25
10.25 -3.25 79.75
10.75 -3.25 79.75
11.25 -3.25 79.25
11.75 -3.25 79.25
11.25 -3.25 79.75
11.75 -3.25 79.75
10.25 -2.75 79.25
10.75 -2.75 79.25
10.25 -2.75 79.75
10.75 -2.75 79.75
11.25 -2.75 79.25
11.25 -2.75 79.75
12.25 -3.25 76.25
12.75 -3.25 76.25
12.25 -3.25 76.75
12.75 -3.25 76.75
13.25 -3.75 76.75
13.25 -3.25 76.75
12.25 -2.75 76.25
12.75 -2.75 76.25
12.75 -2.25 76.25
12.75 -2.75 76.75
12.75 -2.25 76.75
13.25 -2.75 76.75
13.25 -2.25 76.75
12.25 -3.25 77.25
12.75 -3.25 77.25
12.25 -3.25 77.75
12.75 -3.25 77.75
12.75 -2.75 77.25
12.75 -2.25 77.25
12.75 -2.75 77.75
12.75 -2.25 77.75
12.75 -1.75 76.25
12.75 -1.25 76.25
12.75 -1.75 76.75
12.75 -1.25 76.75
13.25 -1.25 76.25
13.25 -1.75 76.75
13.25 -1.25 76.75
12.75 -0.75 76.25
12.75 -0.25 76.25
12.75 -0.75 76.75
12.75 -0.25 76.75
13.25 -0.75 76.25
13.25 -0.25 76.25
13.25 -0.75 76.75
13.25 -0.25 76.75
12.75 -1.75 77.25
12.75 -1.25 77.25
12.75 -1.75 77.75
12.75 -1.25 77.75
12.75 -0.75 77.25
12.75 -0.25 77.25
12.75 -0.75 77.75
12.75 -0.25 77.75
13.25 -0.25 77.25
13.25 -0.25 77.75
12.25 -3.25 78.25
12.75 -3.25 78.25
12.25 -3.25 78.75
12.75 -3.25 78.75
12.75 -2.75 78.25
12.75 -2.25 78.25
12.75 -2.75 78.75
12.75 -2.25 78.75
12.25 -3.25 79.25
12.75 -3.25 79.25
12.25 -3.25 79.75
12.75 -3.25 79.75
12.75 -2.75 79.25
12.75 -2.25 79.25
12.75 -2.75 79.75
12.75 -2.25 79.75
12.75 -1.75 78.25
12.75 -1.25 78.25
12.75 -1.75 78.75
12.75 -1.25 78.75
12.75 -0.75 78.25
12.75 -0.25 78.25
12.75 -0.75 78.75
12.75 -0.25 78.75
13.25 -0.25 78.25
13.25 -0.25 78.75
12.75 -1.75 79.25
12.75 -1.25 79.25
12.75 -1.75 79.75
12.75 -1.25 79.75
12.75 -0.75 79.25
12.75 -0.25 79.25
12.75 -0.75 79.75
12.75 -0.25 79.75
13.25 -0.25 79.25
13.25 -0.25 79.75
16.25 -5.25 64.25
16.75 -5.25 64.25
16.25 -5.25 64.75
16.75 -5.25 64.75
16.25 -4.75 64.25
16.75 -4.75 64.25
16.25 -4.25 64.25
16.75 -4.25 64.25
16.25 -4.75 64.75
16.75 -4.75 64.75
16.25 -4.25 64.75
16.75 -4.25 64.75
16.25 -5.25 65.25
16.75 -5.25 65.25
16.25 -5.25 65.75
16.75 -5.25 65.75
16.25 -4.75 65.25
16.75 -4.75 65.25
16.75 -4.25 65.25
16.25 -4.75 65.75
16.75 -4.75 65.75
16.25 -5.25 66.25
16.75 -5.25 66.25
16.75 -5.25 66.75
16.25 -4.75 66.25
16.75 -4.75 66.25
16.25 -4.25 66.25
16.25 -4.75 66.75
16.75 -4.75 66.75
16.25 -4.75 67.25
16.75 -4.75 67.25
16.25 -3.75 64.25
16.75 -3.75 64.25
16.75 -3.25 64.25
16.25 -3.75 64.75
16.75 -3.75 64.75
16.75 -3.25 64.75
16.75 -2.75 64.25
16.75 -2.25 64.25
16.75 -2.75 64.75
16.75 -2.25 64.75
16.25 -3.75 65.25
16.75 -3.75 65.25
16.25 -3.25 65.25
16.75 -3.25 65.25
16.25 -3.75 65.75
16.75 -3.75 65.75
16.25 -3.25 65.75
16.75 -2.75 65.25
16.25 -2.25 65.25
16.75 -2.25 65.25
16.25 -2.25 65.75
16.75 -2.25 65.75
16.75 -1.75 64.25
16.75 -1.25 64.25
16.75 -1.75 64.75
16.75 -1.25 64.75
16.75 -0.75 64.25
16.75 -0.25 64.25
16.75 -0.75 64.75
16.75 -0.25 64.75
16.75 -1.75 65.25
16.75 -1.25 65.25
16.25 -1.25 65.75
16.75 -1.25 65.75
16.25 -0.75 65.25
16.75 -0.75 65.25
16.25 -0.25 65.25
16.75 -0.25 65.25
16.25 -0.75 65.75
16.75 -0.75 65.75
16.75 -0.25 65.75
16.25 -3.75 66.25
16.75 -3.75 66.25
16.25 -2.25 66.25
16.75 -2.25 66.25
16.25 -1.25 66.25
16.75 -1.25 66.25
16.25 -4.75 68.75
16.25 -4.25 68.75
16.25 -3.75 68.75
16.25 -3.25 68.75
16.25 -2.75 68.75
16.25 -2.25 68.75
16.25 -1.75 68.75
16.25 -1.25 68.75
16.25 -0.75 68.75
16.25 -0.25 68.75
6.75 -2.75 80.25
7.25 -2.75 80.25
7.75 -2.75 80.25
7.25 -2.25 80.25
7.25 -2.75 80.75
7.75 -2.75 80.75
7.25 -2.25 80.75
6.75 -3.25 81.75
7.75 -3.25 81.25
7.25 -3.25 81.75
7.75 -3.25 81.75
6.75 -2.75 81.25
6.75 -2.25 81.25
6.75 -2.75 81.75
6.75 -2.25 81.75
7.25 -2.75 81.25
7.75 -2.75 81.25
7.25 -2.25 81.25
7.25 -2.75 81.75
7.25 -1.75 80.25
7.25 -1.25 80.25
7.25 -1.75 80.75
7.25 -1.25 80.75
7.25 -0.75 80.25
7.25 -0.25 80.25
7.25 -0.75 80.75
7.25 -0.25 80.75
6.75 -1.75 81.25
6.75 -1.25 81.25
6.75 -1.75 81.75
6.75 -1.25 81.75
7.25 -1.75 81.25
7.25 -1.25 81.25
6.75 -0.75 81.25
6.75 -0.25 81.25
6.75 -0.75 81.75
6.75 -0.25 81.75
7.25 -0.75 81.25
7.25 -0.25 81.25
6.75 -3.25 82.25
7.25 -3.25 82.25
7.75 -3.25 82.25
7.75 -3.25 82.75
6.75 -2.75 82.25
6.75 -2.25 82.25
6.75 -2.75 82.75
6.75 -2.25 82.75
7.25 -2.75 82.25
7.75 -2.75 82.25
7.25 -2.75 82.75
7.75 -2.75 82.75
7.25 -2.25 82.75
7.25 -2.75 83.25
7.75 -2.75 83.25
7.25 -2.25 83.25
7.25 -2.75 83.75
7.75 -2.75 83.75
7.25 -2.25 83.75
7.75 -2.25 83.75
6.75 -1.75 82.25
6.75 -1.25 82.25
6.75 -1.75 82.75
6.75 -1.25 82.75
7.25 -1.75 82.75
7.25 -1.25 82.75
6.75 -0.75 82.25
6.75 -0.25 82.25
7.25 -0.75 82.25
7.25 -0.25 82.25
7.25 -0.75 82.75
7.25 -0.25 82.75
7.25 -1.75 83.25
7.25 -1.25 83.25
7.25 -1.75 83.75
7.75 -1.75 83.75
7.25 -1.25 83.75
7.75 -1.25 83.75
7.25 -0.75 83.25
7.25 -0.25 83.25
7.25 -0.75 83.75
7.75 -0.75 83.75
7.25 -0.25 83.75
7.75 -0.25 83.75
7.25 -2.25 84.25
7.75 -2.25 84.25
7.75 -2.25 84.75
7.75 -2.25 85.25
7.75 -2.25 85.75
7.25 -1.75 84.25
7.75 -1.75 84.25
7.25 -1.25 84.25
7.75 -1.25 84.25
7.75 -1.75 84.75
7.75 -1.25 84.75
7.75 -0.75 84.25
7.75 -0.25 84.25
7.75 -0.75 84.75
7.75 -0.25 84.75
7.75 -1.75 85.25
7.75 -1.25 85.25
7.75 -1.75 85.75
7.75 -1.25 85.75
7.75 -0.75 85.25
7.75 -0.25 85.25
7.75 -0.75 85.75
7.75 -0.25 85.75
9.75 -3.25 80.75
8.25 -2.75 80.25
8.75 -2.75 80.25
8.25 -2.75 80.75
8.75 -2.75 80.75
9.25 -2.75 80.25
9.75 -2.75 80.25
9.25 -2.75 80.75
9.75 -2.75 80.75
8.25 -3.25 81.25
8.75 -3.25 81.25
8.25 -3.25 81.75
8.75 -3.25 81.75
9.25 -3.25 81.25
9.75 -3.25 81.25
9.25 -3.25 81.75
9.75 -3.25 81.75
8.25 -2.75 81.25
8.75 -2.75 81.25
9.25 -2.75 81.25
9.75 -2.75 81.25
10.25 -3.25 80.25
10.75 -3.25 80.25
10.25 -3.25 80.75
10.75 -3.25 80.75
11.25 -3.25 80.25
11.75 -3.25 80.25
11.25 -3.25 80.75
11.75 -3.25 80.75
10.25 -2.75 80.25
10.75 -2.75 80.25
10.25 -2.75 80.75
10.75 -2.75 80.75
11.25 -2.75 80.25
11.25 -2.75 80.75
10.25 -3.25 81.25
10.75 -3.25 81.25
10.25 -3.25 81.75
10.75 -3.25 81.75
11.25 -3.25 81.25
11.75 -3.25 81.25
11.25 -3.25 81.75
11.75 -3.25 81.75
10.25 -2.75 81.25
10.75 -2.75 81.25
8.25 -3.25 82.25
8.75 -3.25 82.25
8.25 -3.25 82.75
8.75 -3.25 82.75
9.25 -3.25 82.25
9.75 -3.25 82.25
9.25 -3.25 82.75
9.75 -3.25 82.75
8.25 -2.75 82.75
8.75 -2.75 82.75
9.25 -2.75 82.75
9.75 -2.75 82.75
8.25 -2.75 83.25
8.75 -2.75 83.25
8.25 -2.75 83.75
8.75 -2.75 83.75
8.25 -2.25 83.75
9.25 -2.75 83.25
9.75 -2.75 83.25
9.25 -2.75 83.75
9.75 -2.75 83.75
10.25 -3.25 82.25
10.75 -3.25 82.25
10.25 -3.25 82.75
10.75 -3.25 82.75
11.25 -3.25 82.25
11.75 -3.25 82.25
11.25 -3.25 82.75
11.75 -3.25 82.75
10.25 -2.75 82.75
10.75 -2.75 82.75
11.25 -2.75 82.75
11.25 -3.25 83.25
11.75 -3.25 83.25
10.25 -2.75 83.25
10.75 -2.75 83.25
10.25 -2.75 83.75
10.75 -2.75 83.75
11.25 -2.75 83.25
11.75 -2.75 83.25
11.25 -2.75 83.75
11.75 -2.75 83.75
12.25 -3.25 80.25
12.75 -3.25 80.25
12.25 -3.25 80.75
12.75 -3.25 80.75
12.75 -2.75 80.25
12.75 -2.25 80.25
12.75 -2.75 80.75
12.75 -2.25 80.75
12.25 -3.25 81.25
12.75 -3.25 81.25
12.75 -3.75 81.75
12.25 -3.25 81.75
12.75 -3.25 81.75
13.25 -3.75 81.75
13.25 -3.25 81.75
12.75 -2.75 81.25
12.75 -2.25 81.25
13.25 -2.75 81.25
13.25 -2.25 81.25
13.25 -2.75 81.75
13.25 -2.25 81.75
12.75 -1.75 80.25
12.75 -1.25 80.25
12.75 -1.75 80.75
12.75 -1.25 80.75
12.75 -0.75 80.25
12.75 -0.25 80.25
12.75 -0.75 80.75
12.75 -0.25 80.75
13.25 -0.25 80.25
13.25 -0.25 80.75
12.75 -1.75 81.25
12.75 -1.25 81.25
13.25 -1.75 81.25
13.25 -1.25 81.25
13.25 -1.75 81.75
13.25 -1.25 81.75
12.75 -0.75 81.25
12.75 -0.25 81.25
13.25 -0.75 81.25
13.25 -0.25 81.25
13.25 -0.75 81.75
13.25 -0.25 81.75
12.25 -3.25 82.25
12.75 -3.25 82.25
12.25 -3.25 82.75
12.75 -3.25 82.75
13.25 -3.25 82.25
12.75 -2.75 82.25
12.75 -2.25 82.25
12.75 -2.75 82.75
12.75 -2.25 82.75
13.25 -2.75 82.25
13.25 -2.25 82.25
12.25 -3.25 83.25
12.75 -3.25 83.25
12.25 -2.75 83.25
12.75 -2.75 83.25
12.75 -2.25 83.25
12.25 -2.75 83.75
12.75 -2.75 83.75
12.25 -2.25 83.75
12.75 -2.25 83.75
12.75 -1.75 82.25
12.75 -1.75 82.75
12.75 -1.25 82.75
13.25 -1.75 82.25
13.25 -1.25 82.25
13.25 -1.75 82.75
13.25 -1.25 82.75
12.75 -0.75 82.75
12.75 -0.25 82.75
13.25 -0.75 82.25
13.25 -0.25 82.25
13.25 -0.75 82.75
13.25 -0.25 82.75
12.75 -1.75 83.25
12.75 -1.25 83.25
12.25 -1.75 83.75
12.75 -1.75 83.75
12.25 -1.25 83.75
12.75 -1.25 83.75
12.75 -0.75 83.25
12.75 -0.25 83.25
12.75 -0.75 83.75
12.75 -0.25 83.75
8.25 -2.75 84.25
8.75 -2.75 84.25
8.25 -2.25 84.25
8.75 -2.25 84.25
8.25 -2.25 84.75
8.75 -2.25 84.75
9.25 -2.75 84.25
9.75 -2.75 84.25
9.25 -2.25 84.25
9.75 -2.25 84.25
9.25 -2.25 84.75
9.75 -2.25 84.75
8.25 -2.25 85.25
8.75 -2.25 85.25
8.25 -2.25 85.75
8.75 -2.25 85.75
9.25 -2.25 85.25
9.75 -2.25 85.25
9.25 -2.25 85.75
9.75 -2.25 85.75
10.25 -2.75 84.25
10.75 -2.75 84.25
10.25 -2.25 84.25
10.75 -2.25 84.25
10.25 -2.25 84.75
10.75 -2.25 84.75
11.25 -2.75 84.25
11.75 -2.75 84.25
11.25 -2.25 84.25
11.75 -2.25 84.25
11.25 -2.75 84.75
11.75 -2.75 84.75
11.25 -2.25 84.75
11.75 -2.25 84.75
10.25 -2.25 85.25
10.75 -2.25 85.25
10.25 -2.25 85.75
10.75 -2.25 85.75
11.25 -2.25 85.25
11.75 -2.25 85.25
11.25 -2.25 85.75
11.75 -2.25 85.75
8.25 -1.75 85.75
8.75 -1.75 85.75
8.25 -1.25 85.75
9.25 -1.75 85.75
9.75 -1.75 85.75
8.25 -0.75 85.25
8.25 -0.25 85.25
8.25 -0.75 85.75
8.25 -0.25 85.75
10.25 -1.75 85.75
11.75 -1.75 85.75
11.75 -1.25 85.75
11.75 -0.75 85.75
11.75 -0.25 85.75
10.25 -2.25 86.25
10.75 -2.25 86.25
11.25 -2.25 86.25
11.75 -2.25 86.25
8.25 -1.75 86.25
8.75 -1.75 86.25
8.25 -1.25 86.25
8.25 -1.75 86.75
8.75 -1.75 86.75
8.25 -1.25 86.75
9.25 -1.75 86.25
9.75 -1.75 86.25
9.25 -1.75 86.75
9.75 -1.75 86.75
8.25 -0.75 86.25
8.25 -0.25 86.25
8.25 -0.75 86.75
8.25 -0.25 86.75
8.25 -1.75 87.25
8.75 -1.75 87.25
8.25 -1.25 87.25
8.75 -1.25 87.25
8.25 -1.75 87.75
8.75 -1.75 87.75
8.25 -1.25 87.75
8.75 -1.25 87.75
9.25 -1.75 87.25
9.75 -1.75 87.25
9.25 -1.75 87.75
9.75 -1.75 87.75
9.25 -1.25 87.75
9.75 -1.25 87.75
8.25 -0.75 87.25
8.75 -0.75 87.25
8.25 -0.25 87.25
8.75 -0.25 87.25
8.25 -0.75 87.75
8.75 -0.75 87.75
8.75 -0.25 87.75
10.25 -1.75 86.25
10.75 -1.75 86.25
10.25 -1.75 86.75
10.75 -1.75 86.75
11.25 -1.75 86.25
11.75 -1.75 86.25
11.75 -1.25 86.25
11.25 -1.75 86.75
11.75 -1.75 86.75
11.75 -1.25 86.75
11.75 -0.75 86.25
11.75 -0.25 86.25
11.75 -0.75 86.75
11.75 -0.25 86.75
10.25 -1.75 87.25
10.75 -1.75 87.25
10.25 -1.75 87.75
10.75 -1.75 87.75
10.25 -1.25 87.75
10.75 -1.25 87.75
11.25 -1.75 87.25
11.75 -1.75 87.25
11.75 -1.25 87.25
11.25 -1.75 87.75
11.75 -1.75 87.75
11.25 -1.25 87.75
11.75 -1.25 87.75
11.75 -0.75 87.25
11.75 -0.25 87.25
11.25 -0.75 87.75
11.75 -0.75 87.75
11.25 -0.25 87.75
11.75 -0.25 87.75
12.25 -2.75 84.25
12.25 -2.25 84.25
12.25 -2.75 84.75
12.25 -2.25 84.75
12.25 -2.25 85.25
12.25 -2.25 85.75
12.25 -1.75 84.25
12.75 -1.75 84.25
12.25 -1.25 84.25
12.75 -1.25 84.25
12.25 -1.75 84.75
12.25 -1.25 84.75
12.25 -0.75 84.25
12.75 -0.75 84.25
12.25 -0.25 84.25
12.75 -0.25 84.25
12.25 -0.75 84.75
12.25 -0.25 84.75
12.25 -1.75 85.25
12.25 -1.25 85.25
12.25 -1.75 85.75
12.25 -1.25 85.75
12.25 -0.75 85.25
12.25 -0.25 85.25
12.25 -0.75 85.75
12.25 -0.25 85.75
8.75 -1.25 88.25
8.75 -1.25 88.75
9.25 -1.25 88.25
9.75 -1.25 88.25
9.25 -1.25 88.75
9.75 -1.25 88.75
8.75 -0.75 88.25
8.75 -0.25 88.25
8.75 -0.75 88.75
8.75 -0.25 88.75
8.75 -1.25 89.25
8.75 -1.25 89.75
9.25 -1.25 89.25
9.75 -1.25 89.25
9.25 -1.25 89.75
9.75 -1.25 89.75
8.75 -0.75 89.25
8.75 -0.25 89.25
8.75 -0.75 89.75
8.75 -0.25 89.75
9.25 -0.75 89.25
9.25 -0.25 89.25
9.25 -0.75 89.75
9.75 -0.75 89.75
9.25 -0.25 89.75
10.75 -1.75 88.25
10.25 -1.25 88.25
10.75 -1.25 88.25
10.25 -1.25 88.75
10.75 -1.25 88.75
11.25 -1.75 88.25
11.25 -1.25 88.25
11.25 -1.25 88.75
11.25 -0.75 88.25
11.25 -0.25 88.25
11.25 -0.75 88.75
11.25 -0.25 88.75
10.25 -1.25 89.25
10.75 -1.25 89.25
10.25 -1.25 89.75
10.75 -1.25 89.75
11.25 -1.25 89.25
11.25 -1.25 89.75
10.25 -0.75 89.75
10.75 -0.75 89.75
10.75 -0.25 89.75
11.25 -0.75 89.25
11.25 -0.25 89.25
11.25 -0.75 89.75
11.25 -0.25 89.75
9.25 -0.75 90.25
9.75 -0.75 90.25
9.25 -0.25 90.25
9.25 -0.75 90.75
9.75 -0.75 90.75
9.25 -0.25 90.75
9.25 -0.75 91.25
9.75 -0.75 91.25
9.25 -0.25 91.25
9.25 -0.75 91.75
9.75 -0.75 91.75
9.25 -0.25 91.75
9.75 -0.25 91.75
10.25 -1.25 90.25
10.75 -1.25 90.25
10.25 -0.75 90.25
10.75 -0.75 90.25
10.75 -0.25 90.25
10.25 -0.75 90.75
10.75 -0.75 90.75
10.75 -0.25 90.75
10.25 -0.75 91.25
10.75 -0.75 91.25
10.75 -0.25 91.25
10.25 -0.75 91.75
10.75 -0.75 91.75
10.75 -0.25 91.75
9.25 -0.75 92.25
9.75 -0.75 92.25
9.25 -0.25 92.25
9.75 -0.25 92.25
9.75 -0.75 92.75
9.75 -0.25 92.75
9.75 -0.25 93.25
9.75 -0.25 93.75
10.25 -0.75 92.25
10.75 -0.75 92.25
10.75 -0.25 92.25
10.25 -0.75 92.75
10.75 -0.75 92.75
10.25 -0.25 92.75
10.75 -0.25 92.75
10.25 -0.75 93.25
10.25 -0.25 93.25
10.25 -0.25 93.75
9.75 -0.25 94.25
9.75 -0.25 94.75
9.75 -0.25 95.25
9.75 -0.25 95.75
10.25 -0.25 94.25
10.25 -0.25 94.75
10.25 -0.25 95.25
10.25 -0.25 95.75
9.75 -0.25 96.25
9.75 -0.25 97.75
10.25 -0.25 96.25
10.25 -0.25 96.75
10.25 -0.25 97.25
10.25 -0.25 97.75
9.75 -0.25 98.25
9.75 -0.25 98.75
9.75 -0.25 99.25
9.75 -0.25 99.75
10.25 -0.25 98.25
10.25 -0.25 98.75
10.25 -0.75 99.25
10.25 -0.25 99.25
10.25 -0.75 99.75
10.25 -0.25 99.75
4.25 0.25 0.75
4.75 0.25 0.75
4.25 0.75 0.75
4.75 0.75 0.75
4.25 1.25 0.75
4.75 1.25 0.75
4.25 1.75 0.75
4.75 1.75 0.75
4.25 0.25 1.25
4.25 0.75 1.25
4.75 0.75 1.25
4.25 0.25 1.75
4.25 0.75 1.75
4.25 1.25 1.25
4.75 1.25 1.25
4.25 1.75 1.25
4.75 1.75 1.25
4.25 1.25 1.75
4.75 1.25 1.75
4.25 1.75 1.75
4.75 1.75 1.75
4.25 2.25 0.75
4.75 2.25 0.75
4.75 2.75 0.75
4.75 3.25 0.75
4.75 3.75 0.75
4.25 2.25 1.25
4.75 2.25 1.25
4.75 2.75 1.25
4.25 2.25 1.75
4.75 2.25 1.75
4.75 2.75 1.75
4.75 3.25 1.25
4.75 3.75 1.25
4.75 3.25 1.75
4.75 3.75 1.75
4.25 0.25 2.25
4.25 0.75 2.25
4.25 0.25 2.75
4.25 0.75 2.75
4.25 1.25 2.25
4.75 1.25 2.25
4.25 1.75 2.25
4.75 1.75 2.25
4.25 1.25 2.75
4.75 1.25 2.75
4.25 1.75 2.75
4.75 1.75 2.75
4.25 0.25 3.25
4.25 0.75 3.25
4.25 0.25 3.75
4.25 0.75 3.75
4.25 1.25 3.25
4.75 1.25 3.25
4.25 1.75 3.25
4.75 1.75 3.25
4.25 1.25 3.75
4.25 1.75 3.75
4.75 1.75 3.75
4.75 2.25 2.25
4.75 2.75 2.25
4.75 2.25 2.75
4.75 2.75 2.75
4.75 3.25 2.25
4.75 3.75 2.25
4.75 3.25 2.75
4.75 3.75 2.75
4.25 2.25 3.25
4.75 2.25 3.25
4.75 2.75 3.25
4.25 2.25 3.75
4.75 2.25 3.75
4.25 2.75 3.75
4.75 2.75 3.75
4.75 3.25 3.25
4.75 3.75 3.25
4.75 3.25 3.75
4.75 3.75 3.75
4.75 4.25 0.75
4.75 4.75 0.75
4.25 5.25 0.75
4.25 5.75 0.75
4.75 4.25 1.25
4.75 4.75 1.25
4.75 4.25 1.75
4.75 4.75 1.75
4.25 5.25 1.25
4.25 5.75 1.25
4.25 5.25 1.75
4.25 5.75 1.75
6.25 5.75 0.75
6.75 5.75 0.75
7.25 5.75 0.75
7.75 5.75 0.75
6.25 5.75 1.25
6.75 5.75 1.25
6.25 5.75 1.75
6.75 5.75 1.75
7.25 5.75 1.25
7.75 5.75 1.25
7.25 5.75 1.75
7.75 5.75 1.75
4.25 6.25 0.75
4.75 6.25 0.75
5.25 6.25 0.75
4.25 6.25 1.25
4.75 6.25 1.25
4.25 6.25 1.75
4.75 6.25 1.75
5.25 6.25 1.25
5.25 6.25 1.75
4.75 4.25 2.25
4.75 4.75 2.25
4.75 4.25 2.75
4.25 4.75 2.75
4.75 4.75 2.75
4.25 5.25 2.25
4.25 5.75 2.25
4.25 5.25 2.75
4.25 5.75 2.75
5.75 5.75 2.75
4.75 4.25 3.25
4.25 4.75 3.25
4.75 4.75 3.25
4.75 4.25 3.75
4.25 4.75 3.75
4.75 4.75 3.75
4.25 5.25 3.25
4.25 5.75 3.25
4.25 5.25 3.75
4.25 5.75 3.75
5.75 5.75 3.25
5.75 5.75 3.75
6.25 5.75 2.25
6.75 5.75 2.25
6.25 5.75 2.75
6.75 5.75 2.75
7.25 5.75 2.25
7.75 5.75 2.25
7.25 5.75 2.75
7.75 5.75 2.75
6.25 5.75 3.25
6.75 5.75 3.25
6.25 5.75 3.75
6.75 5.75 3.75
7.25 5.75 3.25
7.75 5.75 3.25
7.25 5.75 3.75
7.75 5.75 3.75
4.25 6.25 2.25
4.75 6.25 2.25
4.25 6.25 2.75
4.75 6.25 2.75
5.25 6.25 2.25
5.25 6.25 2.75
5.75 6.25 2.75
4.25 6.25 3.25
4.75 6.25 3.25
4.25 6.25 3.75
4.75 6.25 3.75
5.25 6.25 3.25
5.75 6.25 3.25
5.25 6.25 3.75
5.75 6.25 3.75
4.25 0.25 4.25
4.25 0.75 4.25
4.25 0.25 4.75
4.25 0.75 4.75
4.25 1.25 4.25
4.25 1.75 4.25
4.75 1.75 4.25
4.25 1.25 4.75
4.25 1.75 4.75
4.75 1.75 4.75
4.25 0.25 5.25
4.25 0.75 5.25
4.25 0.25 5.75
4.25 0.75 5.75
4.25 1.25 5.25
4.75 1.25 5.25
4.25 1.75 5.25
4.75 1.75 5.25
4.25 1.25 5.75
4.25 1.75 5.75
4.75 1.75 5.75
4.25 2.25 4.25
4.75 2.25 4.25
4.25 2.75 4.25
4.75 2.75 4.25
4.25 2.25 4.75
4.75 2.25 4.75
4.25 2.75 4.75
4.75 2.75 4.75
4.75 3.25 4.25
4.75 3.75 4.25
4.75 3.25 4.75
4.75 3.75 4.75
4.25 2.25 5.25
4.75 2.25 5.25
4.25 2.75 5.25
4.75 2.75 5.25
4.25 2.25 5.75
4.75 2.25 5.75
4.25 2.75 5.75
4.75 2.75 5.75
4.75 3.25 5.25
4.75 3.75 5.25
4.75 3.25 5.75
4.75 3.75 5.75
4.25 0.25 6.25
4.25 0.75 6.25
4.25 0.25 6.75
4.25 0.75 6.75
4.25 1.25 6.25
4.75 1.25 6.25
4.25 1.75 6.25
4.75 1.75 6.25
4.25 1.25 6.75
4.75 1.25 6.75
4.25 1.75 6.75
4.75 1.75 6.75
4.25 0.25 7.25
4.75 0.25 7.25
4.25 0.75 7.25
4.75 0.75 7.25
4.25 0.25 7.75
4.75 0.25 7.75
4.25 0.75 7.75
4.75 0.75 7.75
4.25 1.25 7.25
4.75 1.25 7.25
4.25 1.75 7.25
4.75 1.75 7.25
4.25 1.25 7.75
4.75 1.25 7.75
4.25 1.75 7.75
4.75 1.75 7.75
4.25 2.25 6.25
4.75 2.25 6.25
4.25 2.75 6.25
4.75 2.75 6.25
4.25 2.25 6.75
4.75 2.25 6.75
4.25 2.75 6.75
4.75 2.75 6.75
4.75 3.25 6.25
4.75 3.75 6.25
4.75 3.25 6.75
4.75 3.75 6.75
4.25 2.25 7.25
4.75 2.25 7.25
4.25 2.75 7.25
4.75 2.75 7.25
4.25 2.25 7.75
4.75 2.25 7.75
4.25 2.75 7.75
4.75 2.75 7.75
4.75 3.25 7.25
4.75 3.75 7.25
4.75 3.25 7.75
4.75 3.75 7.75
4.75 4.25 4.25
4.25 4.75 4.25
4.75 4.75 4.25
4.75 4.25 4.75
4.25 4.75 4.75
4.75 4.75 4.75
4.25 5.25 4.25
4.25 5.75 4.25
4.25 5.25 4.75
4.25 5.75 4.75
5.75 5.75 4.25
5.75 5.75 4.75
4.75 4.25 5.25
4.25 4.75 5.25
4.75 4.75 5.25
4.75 4.25 5.75
4.25 4.75 5.75
4.75 4.75 5.75
4.25 5.25 5.25
4.25 5.75 5.25
4.25 5.25 5.75
4.25 5.75 5.75
5.75 5.75 5.25
5.75 5.75 5.75
6.25 5.75 4.25
6.75 5.75 4.25
6.25 5.75 4.75
6.75 5.75 4.75
7.25 5.75 4.25
7.75 5.75 4.25
7.25 5.75 4.75
7.75 5.75 4.75
6.25 5.75 5.25
6.75 5.75 5.25
6.25 5.75 5.75
6.75 5.75 5.75
7.25 5.75 5.25
7.75 5.75 5.25
7.25 5.75 5.75
7.75 5.75 5.75
4.25 6.25 4.25
4.75 6.25 4.25
4.25 6.25 4.75
4.75 6.25 4.75
5.25 6.25 4.25
5.75 6.25 4.25
5.25 6.25 4.75
5.75 6.25 4.75
4.75 6.25 5.25
4.75 6.25 5.75
5.25 6.25 5.25
5.75 6.25 5.25
5.25 6.25 5.75
5.75 6.25 5.75
4.75 4.25 6.25
4.25 4.75 6.25
4.75 4.75 6.25
4.75 4.25 6.75
4.25 4.75 6.75
4.75 4.75 6.75
4.25 5.25 6.25
4.75 5.25 6.25
4.25 5.75 6.25
4.25 5.25 6.75
4.25 5.75 6.75
5.75 5.75 6.25
5.75 5.75 6.75
4.75 4.25 7.25
4.25 4.75 7.25
4.75 4.75 7.25
4.75 4.25 7.75
4.25 4.75 7.75
4.75 4.75 7.75
4.25 5.25 7.25
4.25 5.75 7.25
4.25 5.25 7.75
4.25 5.75 7.75
5.75 5.75 7.25
5.75 5.75 7.75
6.25 5.75 6.25
6.75 5.75 6.25
6.25 5.75 6.75
6.75 5.75 6.75
7.25 5.75 6.25
7.75 5.75 6.25
7.25 5.75 6.75
7.75 5.75 6.75
6.25 5.75 7.25
6.75 5.75 7.25
6.25 5.75 7.75
6.75 5.75 7.75
7.25 5.75 7.25
7.75 5.75 7.25
7.25 5.75 7.75
7.75 5.75 7.75
4.75 6.25 6.25
4.75 6.25 6.75
5.25 6.25 6.25
5.75 6.25 6.25
5.25 6.25 6.75
5.75 6.25 6.75
4.75 6.25 7.25
4.75 6.25 7.75
5.25 6.25 7.25
5.75 6.25 7.25
5.25 6.25 7.75
5.75 6.25 7.75
15.75 0.25 0.75
15.75 0.75 0.75
15.75 1.25 0.75
15.75 1.75 0.75
15.75 0.25 1.25
15.75 0.75 1.25
15.75 0.25 1.75
15.75 0.75 1.75
15.75 1.25 1.25
15.75 1.75 1.25
15.75 1.25 1.75
15.75 1.75 1.75
15.75 2.25 0.75
15.75 2.75 0.75
15.75 3.25 0.75
15.75 3.75 0.75
15.75 2.25 1.25
15.75 2.75 1.25
15.75 2.25 1.75
15.75 2.75 1.75
15.75 3.25 1.25
15.75 3.75 1.25
15.75 3.25 1.75
15.75 3.75 1.75
15.75 0.25 2.25
15.75 0.75 2.25
15.75 0.25 2.75
15.75 0.75 2.75
15.75 1.25 2.25
15.75 1.75 2.25
15.75 1.25 2.75
15.75 1.75 2.75
15.75 0.25 3.25
15.75 0.75 3.25
15.75 0.25 3.75
15.75 0.75 3.75
15.75 1.25 3.25
15.75 1.75 3.25
15.75 1.25 3.75
15.75 1.75 3.75
15.75 2.25 2.25
15.75 2.75 2.25
15.75 2.25 2.75
15.75 2.75 2.75
15.75 3.25 2.25
15.75 3.75 2.25
15.75 3.25 2.75
15.75 3.75 2.75
15.75 2.25 3.25
15.75 2.75 3.25
15.75 2.25 3.75
15.75 2.75 3.75
15.75 3.25 3.25
15.75 3.75 3.25
15.75 3.25 3.75
15.75 3.75 3.75
8.25 5.75 0.75
8.75 5.75 0.75
9.25 5.75 0.75
9.75 5.75 0.75
8.25 5.75 1.25
8.75 5.75 1.25
8.25 5.75 1.75
8.75 5.75 1.75
9.25 5.75 1.25
9.75 5.75 1.25
9.25 5.75 1.75
9.75 5.75 1.75
10.75 5.25 0.75
10.25 5.75 0.75
10.75 5.75 0.75
11.25 5.25 0.75
11.75 5.25 0.75
11.25 5.75 0.75
11.75 5.75 0.75
10.75 5.25 1.25
10.25 5.75 1.25
10.75 5.75 1.25
10.25 5.75 1.75
10.75 5.75 1.75
11.25 5.25 1.25
11.75 5.25 1.25
11.25 5.75 1.25
11.75 5.75 1.25
11.25 5.25 1.75
11.75 5.25 1.75
11.25 5.75 1.75
11.75 5.75 1.75
8.25 5.75 2.25
8.75 5.75 2.25
8.25 5.75 2.75
8.75 5.75 2.75
9.25 5.75 2.25
9.75 5.75 2.25
9.25 5.75 2.75
9.75 5.75 2.75
8.25 5.75 3.25
8.75 5.75 3.25
8.25 5.75 3.75
8.75 5.75 3.75
9.25 5.75 3.25
9.75 5.75 3.25
9.25 5.75 3.75
9.75 5.75 3.75
10.25 5.75 2.25
10.75 5.75 2.25
10.25 5.75 2.75
10.75 5.75 2.75
11.25 5.25 2.25
11.75 5.25 2.25
11.25 5.75 2.25
11.75 5.75 2.25
11.75 5.25 2.75
11.25 5.75 2.75
11.75 5.75 2.75
10.25 5.75 3.25
10.75 5.75 3.25
10.25 5.75 3.75
10.75 5.75 3.75
11.75 5.25 3.25
11.25 5.75 3.25
11.75 5.75 3.25
11.75 5.25 3.75
11.25 5.75 3.75
11.75 5.75 3.75
12.5 5.5 0.5
13.25 5.25 0.75
13.75 5.25 0.75
12.5 5.5 1.5
13.25 5.25 1.25
13.75 5.25 1.25
13.25 5.25 1.75
13.75 5.25 1.75
15.75 4.25 0.75
14.25 5.25 0.75
14.75 5.25 0.75
14.75 5.75 0.75
15.25 5.25 0.75
15.25 5.75 0.75
15.75 5.75 0.75
15.75 4.25 1.25
15.75 4.25 1.75
14.25 5.25 1.25
14.75 5.25 1.25
14.75 5.75 1.25
14.25 5.25 1.75
14.75 5.25 1.75
14.75 5.75 1.75
15.25 5.25 1.25
15.25 5.75 1.25
15.75 5.75 1.25
15.25 5.25 1.75
15.25 5.75 1.75
15.75 5.75 1.75
12.5 5.5 2.5
13.25 5.25 2.25
13.75 5.25 2.25
13.25 5.25 2.75
13.75 5.25 2.75
12.25 5.25 3.25
12.75 5.25 3.25
12.25 5.75 3.25
12.75 5.75 3.25
12.25 5.25 3.75
12.75 5.25 3.75
12.25 5.75 3.75
12.75 5.75 3.75
13.25 5.25 3.25
13.75 5.25 3.25
13.25 5.25 3.75
13.75 5.25 3.75
15.75 4.25 2.25
15.75 4.25 2.75
14.25 5.25 2.25
14.75 5.25 2.25
14.75 5.75 2.25
14.25 5.25 2.75
14.75 5.25 2.75
14.75 5.75 2.75
15.25 5.25 2.25
15.25 5.75 2.25
15.75 5.75 2.25
15.25 5.25 2.75
15.25 5.75 2.75
15.75 5.75 2.75
15.75 4.25 3.25
15.75 4.25 3.75
14.25 5.25 3.25
14.75 5.25 3.25
14.75 5.75 3.25
14.25 5.25 3.75
14.75 5.25 3.75
15.25 5.25 3.25
15.25 5.75 3.25
15.75 5.75 3.25
15.25 5.25 3.75
15.25 5.75 3.75
15.75 5.75 3.75
15.75 0.25 4.25
15.75 0.75 4.25
15.75 0.25 4.75
15.75 0.75 4.75
15.75 1.25 4.25
15.75 1.75 4.25
15.75 1.25 4.75
15.75 1.75 4.75
15.75 0.25 5.25
15.75 0.75 5.25
15.75 0.25 5.75
15.75 0.75 5.75
15.75 1.25 5.25
15.75 1.75 5.25
15.75 1.25 5.75
15.75 1.75 5.75
15.75 2.25 4.25
15.75 2.75 4.25
15.75 2.25 4.75
15.75 2.75 4.75
15.75 3.25 4.25
15.75 3.75 4.25
15.75 3.25 4.75
15.75 3.75 4.75
15.75 2.25 5.25
15.75 2.75 5.25
15.75 2.25 5.75
15.75 2.75 5.75
15.75 3.25 5.25
15.75 3.75 5.25
15.75 3.25 5.75
15.75 3.75 5.75
15.75 0.25 6.25
15.75 0.75 6.25
15.75 0.25 6.75
15.75 0.75 6.75
15.75 1.25 6.25
15.75 1.75 6.25
15.75 1.25 6.75
15.75 1.75 6.75
15.75 0.25 7.25
15.75 0.75 7.25
15.75 0.25 7.75
15.75 0.75 7.75
15.75 1.25 7.25
15.75 1.75 7.25
15.75 1.25 7.75
15.75 1.75 7.75
15.75 2.25 6.25
15.75 2.75 6.25
15.75 2.25 6.75
15.75 2.75 6.75
15.75 3.25 6.25
15.75 3.75 6.25
15.75 3.25 6.75
15.75 3.75 6.75
15.75 2.25 7.25
15.75 2.75 7.25
15.75 2.25 7.75
15.75 2.75 7.75
15.75 3.25 7.25
15.75 3.75 7.25
15.75 3.25 7.75
15.75 3.75 7.75
8.25 5.75 4.25
8.75 5.75 4.25
8.25 5.75 4.75
8.75 5.75 4.75
9.25 5.75 4.25
9.75 5.75 4.25
9.25 5.75 4.75
9.75 5.75 4.75
8.25 5.75 5.25
8.75 5.75 5.25
8.25 5.75 5.75
8.75 5.75 5.75
9.25 5.75 5.25
9.75 5.75 5.25
9.25 5.75 5.75
9.75 5.75 5.75
10.25 5.75 4.25
10.75 5.75 4.25
10.25 5.75 4.75
10.75 5.75 4.75
11.25 5.75 4.25
11.75 5.75 4.25
11.25 5.75 4.75
11.75 5.75 4.75
10.25 5.75 5.25
10.75 5.75 5.25
10.25 5.75 5.75
10.75 5.75 5.75
11.25 5.75 5.25
11.75 5.75 5.25
11.25 5.75 5.75
11.75 5.75 5.75
8.25 5.75 6.25
8.75 5.75 6.25
8.25 5.75 6.75
8.75 5.75 6.75
9.25 5.75 6.25
9.75 5.75 6.25
9.25 5.75 6.75
9.75 5.75 6.75
8.25 5.75 7.25
8.75 5.75 7.25
8.25 5.75 7.75
8.75 5.75 7.75
9.25 5.75 7.25
9.75 5.75 7.25
9.25 5.75 7.75
9.75 5.75 7.75
10.25 5.75 6.25
10.75 5.75 6.25
10.25 5.75 6.75
10.75 5.75 6.75
11.25 5.75 6.25
11.75 5.75 6.25
11.25 5.75 6.75
11.75 5.75 6.75
10.25 5.75 7.25
10.75 5.75 7.25
10.25 5.75 7.75
10.75 5.75 7.75
11.25 5.75 7.25
11.75 5.75 7.25
11.25 5.75 7.75
11.75 5.75 7.75
12.25 5.25 4.25
12.75 5.25 4.25
12.25 5.75 4.25
12.75 5.75 4.25
12.25 5.25 4.75
12.75 5.25 4.75
12.25 5.75 4.75
12.75 5.75 4.75
13.25 5.25 4.25
13.75 5.25 4.25
13.25 5.25 4.75
13.75 5.25 4.75
12.25 5.25 5.25
12.75 5.25 5.25
12.25 5.75 5.25
12.75 5.75 5.25
12.25 5.25 5.75
12.75 5.25 5.75
12.25 5.75 5.75
12.75 5.75 5.75
13.25 5.25 5.25
13.75 5.25 5.25
13.25 5.25 5.75
13.75 5.25 5.75
15.75 4.25 4.25
15.75 4.25 4.75
14.25 5.25 4.25
14.75 5.25 4.25
14.75 5.75 4.25
14.25 5.25 4.75
14.75 5.25 4.75
14.75 5.75 4.75
15.25 5.25 4.25
15.25 5.75 4.25
15.75 5.75 4.25
15.25 5.25 4.75
15.25 5.75 4.75
15.75 5.75 4.75
15.75 4.25 5.25
15.75 4.25 5.75
14.25 5.25 5.25
14.75 5.25 5.25
14.75 5.75 5.25
14.25 5.25 5.75
14.75 5.25 5.75
14.75 5.75 5.75
15.25 5.25 5.25
15.25 5.75 5.25
15.75 5.75 5.25
15.25 5.25 5.75
15.25 5.75 5.75
15.75 5.75 5.75
12.25 5.25 6.25
12.75 5.25 6.25
12.25 5.75 6.25
12.75 5.75 6.25
12.25 5.25 6.75
12.75 5.25 6.75
12.25 5.75 6.75
12.75 5.75 6.75
13.25 5.25 6.25
13.75 5.25 6.25
13.25 5.25 6.75
13.75 5.25 6.75
12.25 5.25 7.25
12.75 5.25 7.25
12.25 5.75 7.25
12.75 5.75 7.25
12.25 5.25 7.75
12.75 5.25 7.75
12.25 5.75 7.75
12.75 5.75 7.75
13.25 5.25 7.25
13.75 5.25 7.25
13.25 5.25 7.75
13.75 5.25 7.75
15.75 4.25 6.25
15.75 4.25 6.75
14.25 5.25 6.25
14.75 5.25 6.25
14.75 5.75 6.25
14.25 5.25 6.75
14.75 5.25 6.75
14.75 5.75 6.75
15.25 5.25 6.25
15.25 5.75 6.25
15.75 5.75 6.25
15.25 5.25 6.75
15.25 5.75 6.75
15.75 5.75 6.75
15.75 4.25 7.25
15.75 4.25 7.75
14.25 5.25 7.25
14.75 5.25 7.25
14.75 5.75 7.25
14.25 5.25 7.75
14.75 5.25 7.75
14.75 5.75 7.75
15.25 5.25 7.25
15.25 5.75 7.25
15.75 5.75 7.25
15.25 5.25 7.75
15.25 5.75 7.75
15.75 5.75 7.75
4.25 0.25 8.25
4.75 0.25 8.25
4.25 0.75 8.25
4.75 0.75 8.25
4.25 0.25 8.75
4.75 0.25 8.75
4.25 0.75 8.75
4.75 0.75 8.75
4.25 1.25 8.25
4.75 1.25 8.25
4.25 1.75 8.25
4.75 1.75 8.25
4.25 1.25 8.75
4.75 1.25 8.75
4.25 1.75 8.75
4.75 1.75 8.75
4.25 0.25 9.25
4.75 0.25 9.25
4.25 0.75 9.25
4.75 0.75 9.25
4.25 0.25 9.75
4.75 0.25 9.75
4.25 0.75 9.75
4.75 0.75 9.75
4.25 1.25 9.25
4.75 1.25 9.25
4.25 1.75 9.25
4.75 1.75 9.25
4.25 1.25 9.75
4.75 1.25 9.75
4.25 1.75 9.75
4.75 1.75 9.75
4.25 2.25 8.25
4.75 2.25 8.25
4.25 2.75 8.25
4.75 2.75 8.25
4.25 2.25 8.75
4.75 2.25 8.75
4.25 2.75 8.75
4.75 2.75 8.75
4.75 3.25 8.25
4.75 3.75 8.25
4.75 3.25 8.75
4.75 3.75 8.75
4.25 2.25 9.25
4.75 2.25 9.25
4.25 2.75 9.25
4.75 2.75 9.25
4.25 2.25 9.75
4.75 2.25 9.75
4.25 2.75 9.75
4.75 2.75 9.75
4.75 3.25 9.25
4.75 3.75 9.25
4.75 3.25 9.75
4.75 3.75 9.75
4.25 0.25 10.25
4.75 0.25 10.25
4.25 0.75 10.25
4.75 0.75 10.25
4.25 0.25 10.75
4.25 0.75 10.75
4.75 0.75 10.75
4.25 1.25 10.25
4.75 1.25 10.25
4.25 1.75 10.25
4.75 1.75 10.25
4.25 1.25 10.75
4.75 1.25 10.75
4.25 1.75 10.75
4.75 1.75 10.75
4.25 0.25 11.25
4.25 0.75 11.25
4.75 0.75 11.25
4.25 0.25 11.75
4.25 0.75 11.75
4.25 1.25 11.25
4.75 1.25 11.25
4.25 1.75 11.25
4.75 1.75 11.25
4.25 1.25 11.75
4.75 1.25 11.75
4.25 1.75 11.75
4.75 1.75 11.75
4.25 2.25 10.25
4.75 2.25 10.25
4.75 2.75 10.25
4.25 2.25 10.75
4.75 2.25 10.75
4.75 2.75 10.75
4.75 3.25 10.25
4.75 3.75 10.25
4.75 3.25 10.75
4.75 3.75 10.75
4.25 2.25 11.25
4.75 2.25 11.25
4.75 2.75 11.25
4.25 2.25 11.75
4.75 2.25 11.75
4.75 2.75 11.75
4.75 3.25 11.25
4.75 3.75 11.25
4.75 3.25 11.75
4.75 3.75 11.75
4.75 4.25 8.25
4.25 4.75 8.25
4.75 4.75 8.25
4.75 4.25 8.75
4.25 4.75 8.75
4.75 4.75 8.75
4.25 5.25 8.25
4.25 5.75 8.25
4.25 5.25 8.75
4.25 5.75 8.75
5.75 5.75 8.25
5.75 5.75 8.75
4.75 4.25 9.25
4.25 4.75 9.25
4.75 4.75 9.25
4.75 4.25 9.75
4.25 4.75 9.75
4.75 4.75 9.75
4.25 5.25 9.25
4.25 5.75 9.25
4.25 5.25 9.75
4.25 5.75 9.75
5.75 5.75 9.25
5.75 5.75 9.75
6.25 5.75 8.25
6.75 5.75 8.25
6.25 5.75 8.75
6.75 5.75 8.75
7.25 5.75 8.25
7.75 5.75 8.25
7.25 5.75 8.75
7.75 5.75 8.75
6.25 5.75 9.25
6.75 5.75 9.25
6.25 5.75 9.75
6.75 5.75 9.75
7.25 5.75 9.25
7.75 5.75 9.25
7.25 5.75 9.75
7.75 5.75 9.75
4.75 6.25 8.25
4.25 6.25 8.75
4.75 6.25 8.75
5.25 6.25 8.25
5.75 6.25 8.25
5.25 6.25 8.75
5.75 6.25 8.75
4.25 6.25 9.25
4.75 6.25 9.25
4.25 6.25 9.75
4.75 6.25 9.75
5.25 6.25 9.25
5.75 6.25 9.25
5.25 6.25 9.75
5.75 6.25 9.75
4.75 4.25 10.25
4.25 4.75 10.25
4.75 4.75 10.25
4.75 4.25 10.75
4.25 4.75 10.75
4.75 4.75 10.75
4.25 5.25 10.25
4.25 5.75 10.25
4.25 5.25 10.75
4.25 5.75 10.75
5.75 5.75 10.25
5.75 5.75 10.75
4.75 4.25 11.25
4.25 4.75 11.25
4.75 4.75 11.25
4.75 4.25 11.75
4.25 4.75 11.75
4.75 4.75 11.75
4.25 5.25 11.25
4.25 5.75 11.25
4.25 5.25 11.75
4.25 5.75 11.75
5.75 5.75 11.25
5.75 5.75 11.75
6.25 5.75 10.25
6.75 5.75 10.25
6.25 5.75 10.75
6.75 5.75 10.75
7.25 5.75 10.25
7.75 5.75 10.25
7.25 5.75 10.75
7.75 5.75 10.75
6.25 5.75 11.25
6.75 5.75 11.25
6.25 5.75 11.75
6.75 5.75 11.75
7.25 5.75 11.25
7.75 5.75 11.25
7.25 5.75 11.75
7.75 5.75 11.75
4.25 6.25 10.25
4.75 6.25 10.25
4.25 6.25 10.75
4.75 6.25 10.75
5.25 6.25 10.25
5.75 6.25 10.25
5.25 6.25 10.75
5.75 6.25 10.75
4.25 6.25 11.25
4.75 6.25 11.25
4.25 6.25 11.75
4.75 6.25 11.75
5.25 6.25 11.25
5.75 6.25 11.25
5.25 6.25 11.75
5.75 6.25 11.75
4.25 0.25 12.25
4.25 0.75 12.25
4.25 0.25 12.75
4.25 0.75 12.75
4.25 1.25 12.25
4.75 1.25 12.25
4.25 1.75 12.25
4.75 1.75 12.25
4.25 1.25 12.75
4.25 1.75 12.75
4.75 1.75 12.75
4.25 0.25 13.25
4.25 0.75 13.25
4.25 0.25 13.75
4.25 0.75 13.75
4.25 1.25 13.25
4.25 1.75 13.25
4.75 1.75 13.25
4.25 1.25 13.75
4.25 1.75 13.75
4.75 1.75 13.75
4.25 2.25 12.25
4.75 2.25 12.25
4.75 2.75 12.25
4.25 2.25 12.75
4.75 2.25 12.75
4.75 2.75 12.75
4.75 3.25 12.25
4.75 3.75 12.25
4.75 3.25 12.75
4.75 3.75 12.75
4.25 2.25 13.25
4.75 2.25 13.25
4.75 2.75 13.25
4.25 2.25 13.75
4.75 2.25 13.75
4.75 2.75 13.75
4.75 3.25 13.25
4.75 3.75 13.25
4.75 3.25 13.75
4.75 3.75 13.75
4.25 0.25 14.25
4.25 0.75 14.25
4.25 0.25 14.75
4.25 0.75 14.75
4.25 1.25 14.25
4.25 1.75 14.25
4.75 1.75 14.25
4.25 1.25 14.75
4.25 1.75 14.75
4.75 1.75 14.75
4.25 0.25 15.25
4.25 0.75 15.25
4.25 0.25 15.75
4.25 0.75 15.75
4.25 1.25 15.25
4.25 1.75 15.25
4.75 1.75 15.25
4.25 1.25 15.75
4.75 1.25 15.75
4.25 1.75 15.75
4.75 1.75 15.75
4.25 2.25 14.25
4.75 2.25 14.25
4.25 2.75 14.25
4.75 2.75 14.25
4.25 2.25 14.75
4.75 2.25 14.75
4.75 2.75 14.75
4.75 3.25 14.25
4.75 3.75 14.25
4.75 3.25 14.75
4.75 3.75 14.75
4.25 2.25 15.25
4.75 2.25 15.25
4.25 2.75 15.25
4.75 2.75 15.25
4.25 2.25 15.75
4.75 2.25 15.75
4.25 2.75 15.75
4.75 2.75 15.75
4.75 3.25 15.25
4.75 3.75 15.25
4.75 3.25 15.75
4.75 3.75 15.75
4.75 4.25 12.25
4.25 4.75 12.25
4.75 4.75 12.25
4.75 4.25 12.75
4.25 4.75 12.75
4.75 4.75 12.75
4.25 5.25 12.25
4.25 5.75 12.25
4.25 5.25 12.75
4.25 5.75 12.75
5.75 5.75 12.25
5.75 5.75 12.75
4.75 4.25 13.25
4.25 4.75 13.25
4.75 4.75 13.25
4.75 4.25 13.75
4.25 4.75 13.75
4.75 4.75 13.75
4.25 5.25 13.25
4.25 5.75 13.25
4.25 5.25 13.75
4.25 5.75 13.75
5.75 5.75 13.25
5.75 5.75 13.75
6.25 5.75 12.25
6.75 5.75 12.25
6.25 5.75 12.75
6.75 5.75 12.75
7.25 5.75 12.25
7.75 5.75 12.25
7.25 5.75 12.75
7.75 5.75 12.75
6.25 5.75 13.25
6.75 5.75 13.25
6.25 5.75 13.75
6.75 5.75 13.75
7.25 5.75 13.25
7.75 5.75 13.25
7.25 5.75 13.75
7.75 5.75 13.75
4.25 6.25 12.25
4.75 6.25 12.25
4.25 6.25 12.75
4.75 6.25 12.75
5.25 6.25 12.25
5.75 6.25 12.25
5.25 6.25 12.75
5.75 6.25 12.75
4.25 6.25 13.25
4.75 6.25 13.25
4.25 6.25 13.75
4.75 6.25 13.75
5.25 6.25 13.25
5.75 6.25 13.25
5.25 6.25 13.75
5.75 6.25 13.75
4.75 4.25 14.25
4.25 4.75 14.25
4.75 4.75 14.25
4.75 4.25 14.75
4.25 4.75 14.75
4.75 4.75 14.75
4.25 5.25 14.25
4.25 5.75 14.25
4.25 5.25 14.75
4.25 5.75 14.75
5.75 5.75 14.25
5.75 5.75 14.75
4.75 4.25 15.25
4.25 4.75 15.25
4.75 4.75 15.25
4.75 4.25 15.75
4.25 4.75 15.75
4.75 4.75 15.75
4.25 5.25 15.25
4.25 5.75 15.25
4.25 5.25 15.75
4.25 5.75 15.75
5.75 5.75 15.25
5.75 5.75 15.75
6.25 5.75 14.25
6.75 5.75 14.25
6.25 5.75 14.75
6.75 5.75 14.75
7.25 5.75 14.25
7.75 5.75 14.25
7.25 5.75 14.75
7.75 5.75 14.75
6.25 5.75 15.25
6.75 5.75 15.25
6.25 5.75 15.75
6.75 5.75 15.75
7.25 5.75 15.25
7.75 5.75 15.25
7.25 5.75 15.75
7.75 5.75 15.75
4.25 6.25 14.25
4.75 6.25 14.25
4.25 6.25 14.75
4.75 6.25 14.75
5.25 6.25 14.25
5.75 6.25 14.25
5.25 6.25 14.75
5.75 6.25 14.75
4.25 6.25 15.25
4.75 6.25 15.25
4.25 6.25 15.75
4.75 6.25 15.75
5.25 6.25 15.25
5.75 6.25 15.25
5.25 6.25 15.75
5.75 6.25 15.75
15.75 0.25 8.25
15.75 0.75 8.25
15.75 0.25 8.75
15.75 0.75 8.75
15.75 1.25 8.25
15.75 1.75 8.25
15.75 1.25 8.75
15.75 1.75 8.75
15.75 0.25 9.25
15.75 0.75 9.25
15.75 0.25 9.75
15.75 0.75 9.75
15.75 1.25 9.25
15.75 1.75 9.25
15.75 1.25 9.75
15.75 1.75 9.75
15.75 2.25 8.25
15.75 2.75 8.25
15.75 2.25 8.75
15.75 2.75 8.75
15.75 3.25 8.25
15.75 3.75 8.25
15.75 3.25 8.75
15.75 3.75 8.75
15.75 2.25 9.25
15.75 2.75 9.25
15.75 2.25 9.75
15.75 2.75 9.75
15.75 3.25 9.25
15.75 3.75 9.25
15.75 3.25 9.75
15.75 3.75 9.75
15.75 0.25 10.25
15.75 0.75 10.25
15.75 0.25 10.75
15.75 0.75 10.75
15.75 1.25 10.25
15.75 1.75 10.25
15.75 1.25 10.75
15.75 1.75 10.75
15.75 0.25 11.25
15.75 0.75 11.25
15.75 0.25 11.75
15.75 0.75 11.75
15.75 1.25 11.25
15.75 1.75 11.25
15.75 1.25 11.75
15.75 1.75 11.75
15.75 2.25 10.25
15.75 2.75 10.25
15.75 2.25 10.75
15.75 2.75 10.75
15.75 3.25 10.25
15.75 3.75 10.25
15.75 3.25 10.75
15.75 3.75 10.75
15.75 2.25 11.25
15.75 2.75 11.25
15.75 2.25 11.75
15.75 2.75 11.75
15.75 3.25 11.25
15.75 3.75 11.25
15.75 3.25 11.75
15.75 3.75 11.75
8.25 5.75 8.25
8.75 5.75 8.25
8.25 5.75 8.75
8.75 5.75 8.75
9.25 5.75 8.25
9.75 5.75 8.25
9.25 5.75 8.75
9.75 5.75 8.75
8.25 5.75 9.25
8.75 5.75 9.25
8.25 5.75 9.75
8.75 5.75 9.75
9.25 5.75 9.25
9.75 5.75 9.25
9.25 5.75 9.75
9.75 5.75 9.75
10.25 5.75 8.25
10.75 5.75 8.25
10.25 5.75 8.75
10.75 5.75 8.75
11.25 5.75 8.25
11.75 5.75 8.25
11.25 5.75 8.75
11.75 5.75 8.75
10.25 5.75 9.25
10.75 5.75 9.25
10.25 5.75 9.75
10.75 5.75 9.75
11.25 5.75 9.25
11.75 5.75 9.25
11.25 5.75 9.75
11.75 5.75 9.75
8.25 5.75 10.25
8.75 5.75 10.25
8.25 5.75 10.75
8.75 5.75 10.75
9.25 5.75 10.25
9.75 5.75 10.25
9.25 5.75 10.75
9.75 5.75 10.75
8.25 5.75 11.25
8.75 5.75 11.25
8.25 5.75 11.75
8.75 5.75 11.75
9.25 5.75 11.25
9.75 5.75 11.25
9.25 5.75 11.75
9.75 5.75 11.75
10.25 5.75 10.25
10.75 5.75 10.25
10.25 5.75 10.75
10.75 5.75 10.75
11.25 5.75 10.25
11.75 5.75 10.25
11.25 5.75 10.75
11.75 5.75 10.75
10.25 5.75 11.25
10.75 5.75 11.25
10.25 5.75 11.75
10.75 5.75 11.75
11.25 5.75 11.25
11.75 5.75 11.25
11.25 5.75 11.75
11.75 5.75 11.75
12.25 5.25 8.25
12.75 5.25 8.25
12.25 5.75 8.25
12.75 5.75 8.25
12.25 5.25 8.75
12.75 5.25 8.75
12.25 5.75 8.75
12.75 5.75 8.75
13.25 5.25 8.25
13.75 5.25 8.25
13.25 5.25 8.75
13.75 5.25 8.75
12.25 5.25 9.25
12.75 5.25 9.25
12.25 5.75 9.25
12.75 5.75 9.25
12.25 5.25 9.75
12.75 5.25 9.75
12.25 5.75 9.75
12.75 5.75 9.75
13.25 5.25 9.25
13.75 5.25 9.25
13.25 5.25 9.75
13.75 5.25 9.75
15.75 4.25 8.25
15.75 4.25 8.75
14.25 5.25 8.25
14.75 5.25 8.25
14.75 5.75 8.25
14.25 5.25 8.75
14.75 5.25 8.75
14.75 5.75 8.75
15.25 5.25 8.25
15.25 5.75 8.25
15.75 5.75 8.25
15.25 5.25 8.75
15.25 5.75 8.75
15.75 5.75 8.75
15.75 4.25 9.25
15.75 4.25 9.75
14.25 5.25 9.25
14.75 5.25 9.25
14.75 5.75 9.25
14.25 5.25 9.75
14.75 5.25 9.75
14.75 5.75 9.75
15.25 5.25 9.25
15.25 5.75 9.25
15.75 5.75 9.25
15.25 5.25 9.75
15.25 5.75 9.75
15.75 5.75 9.75
12.25 5.25 10.25
12.75 5.25 10.25
12.25 5.75 10.25
12.75 5.75 10.25
12.25 5.25 10.75
12.75 5.25 10.75
12.25 5.75 10.75
12.75 5.75 10.75
13.25 5.25 10.25
13.75 5.25 10.25
13.25 5.25 10.75
13.75 5.25 10.75
12.25 5.25 11.25
12.75 5.25 11.25
12.25 5.75 11.25
12.75 5.75 11.25
12.25 5.25 11.75
12.75 5.25 11.75
12.25 5.75 11.75
12.75 5.75 11.75
13.25 5.25 11.25
13.75 5.25 11.25
13.25 5.25 11.75
13.75 5.25 11.75
15.75 4.25 10.25
15.75 4.25 10.75
14.25 5.25 10.25
14.75 5.25 10.25
14.75 5.75 10.25
14.25 5.25 10.75
14.75 5.25 10.75
14.75 5.75 10.75
15.25 5.25 10.25
15.25 5.75 10.25
15.75 5.75 10.25
15.25 5.25 10.75
15.25 5.75 10.75
15.75 5.75 10.75
15.75 4.25 11.25
15.75 4.25 11.75
14.25 5.25 11.25
14.75 5.25 11.25
14.75 5.75 11.25
14.25 5.25 11.75
14.75 5.25 11.75
14.75 5.75 11.75
15.25 5.25 11.25
15.25 5.75 11.25
15.75 5.75 11.25
15.25 5.25 11.75
15.25 5.75 11.75
15.75 5.75 11.75
15.75 0.25 12.25
15.75 0.75 12.25
15.75 0.25 12.75
15.75 0.75 12.75
15.75 1.25 12.25
15.75 1.75 12.25
15.75 1.25 12.75
15.75 1.75 12.75
15.75 0.25 13.25
15.75 0.75 13.25
15.75 0.25 13.75
15.75 0.75 13.75
15.75 1.25 13.25
15.75 1.75 13.25
15.75 1.25 13.75
15.75 1.75 13.75
15.75 2.25 12.25
15.75 2.75 12.25
15.75 2.25 12.75
15.75 2.75 12.75
15.75 3.25 12.25
15.75 3.75 12.25
15.75 3.25 12.75
15.75 3.75 12.75
15.75 2.25 13.25
15.75 2.75 13.25
15.75 2.25 13.75
15.75 2.75 13.75
15.75 3.25 13.25
15.75 3.75 13.25
15.75 3.25 13.75
15.75 3.75 13.75
15.75 0.25 14.25
15.75 0.75 14.25
15.75 0.25 14.75
15.75 0.75 14.75
15.75 1.25 14.25
15.75 1.75 14.25
15.75 1.25 14.75
15.75 1.75 14.75
15.75 0.25 15.25
15.75 0.75 15.25
15.75 0.25 15.75
15.75 0.75 15.75
15.75 1.25 15.25
15.75 1.75 15.25
15.75 1.25 15.75
15.75 1.75 15.75
15.75 2.25 14.25
15.75 2.75 14.25
15.75 2.25 14.75
15.75 2.75 14.75
15.75 3.25 14.25
15.75 3.75 14.25
15.75 3.25 14.75
15.75 3.75 14.75
15.75 2.25 15.25
15.75 2.75 15.25
15.75 2.25 15.75
15.75 2.75 15.75
15.75 3.25 15.25
15.75 3.75 15.25
15.75 3.25 15.75
15.75 3.75 15.75
8.25 5.75 12.25
8.75 5.75 12.25
8.25 5.75 12.75
8.75 5.75 12.75
9.25 5.75 12.25
9.75 5.75 12.25
9.25 5.75 12.75
9.75 5.75 12.75
8.25 5.75 13.25
8.75 5.75 13.25
8.25 5.75 13.75
8.75 5.75 13.75
9.25 5.75 13.25
9.75 5.75 13.25
9.25 5.75 13.75
9.75 5.75 13.75
10.25 5.75 12.25
10.75 5.75 12.25
10.25 5.75 12.75
10.75 5.75 12.75
11.25 5.75 12.25
11.75 5.75 12.25
11.25 5.75 12.75
11.75 5.75 12.75
10.25 5.75 13.25
10.75 5.75 13.25
10.25 5.75 13.75
10.75 5.75 13.75
11.25 5.75 13.25
11.75 5.75 13.25
11.25 5.75 13.75
11.75 5.75 13.75
8.25 5.75 14.25
8.75 5.75 14.25
8.25 5.75 14.75
8.75 5.75 14.75
9.25 5.75 14.25
9.75 5.75 14.25
9.25 5.75 14.75
9.75 5.75 14.75
8.25 5.75 15.25
8.75 5.75 15.25
8.25 5.75 15.75
8.75 5.75 15.75
9.25 5.75 15.25
9.75 5.75 15.25
9.25 5.75 15.75
9.75 5.75 15.75
10.25 5.75 14.25
10.75 5.75 14.25
10.25 5.75 14.75
10.75 5.75 14.75
11.75 5.25 14.25
11.25 5.75 14.25
11.75 5.75 14.25
11.75 5.25 14.75
11.25 5.75 14.75
11.75 5.75 14.75
10.25 5.75 15.25
10.75 5.75 15.25
10.25 5.75 15.75
10.75 5.75 15.75
11.25 5.75 15.25
11.75 5.75 15.25
11.25 5.75 15.75
11.75 5.75 15.75
12.25 5.25 12.25
12.75 5.25 12.25
12.25 5.75 12.25
12.75 5.75 12.25
12.25 5.25 12.75
12.75 5.25 12.75
12.25 5.75 12.75
12.75 5.75 12.75
13.25 5.25 12.25
13.75 5.25 12.25
13.25 5.25 12.75
13.75 5.25 12.75
12.25 5.25 13.25
12.75 5.25 13.25
12.25 5.75 13.25
12.75 5.75 13.25
12.25 5.25 13.75
12.75 5.25 13.75
12.25 5.75 13.75
12.75 5.75 13.75
13.25 5.25 13.25
13.75 5.25 13.25
13.25 5.25 13.75
13.75 5.25 13.75
15.75 4.25 12.25
15.75 4.25 12.75
14.25 5.25 12.25
14.75 5.25 12.25
14.75 5.75 12.25
14.25 5.25 12.75
14.75 5.25 12.75
14.75 5.75 12.75
15.25 5.25 12.25
15.25 5.75 12.25
15.75 5.75 12.25
15.25 5.25 12.75
15.25 5.75 12.75
15.75 5.75 12.75
15.75 4.25 13.25
15.75 4.25 13.75
14.25 5.25 13.25
14.75 5.25 13.25
14.75 5.75 13.25
14.25 5.25 13.75
14.75 5.25 13.75
14.75 5.75 13.75
15.25 5.25 13.25
15.25 5.75 13.25
15.75 5.75 13.25
15.25 5.25 13.75
15.25 5.75 13.75
15.75 5.75 13.75
12.25 5.25 14.25
12.75 5.25 14.25
12.25 5.75 14.25
12.75 5.75 14.25
12.25 5.25 14.75
12.75 5.25 14.75
12.25 5.75 14.75
12.75 5.75 14.75
13.25 5.25 14.25
13.75 5.25 14.25
13.25 5.25 14.75
13.75 5.25 14.75
12.25 5.25 15.25
12.75 5.25 15.25
12.25 5.75 15.25
12.75 5.75 15.25
12.25 5.25 15.75
12.75 5.25 15.75
12.25 5.75 15.75
12.75 5.75 15.75
13.25 5.25 15.25
13.75 5.25 15.25
13.25 5.25 15.75
13.75 5.25 15.75
15.75 4.25 14.25
15.75 4.25 14.75
14.25 5.25 14.25
14.75 5.25 14.25
14.75 5.75 14.25
14.25 5.25 14.75
14.75 5.25 14.75
14.75 5.75 14.75
15.25 5.25 14.25
15.25 5.75 14.25
15.75 5.75 14.25
15.25 5.25 14.75
15.25 5.75 14.75
15.75 5.75 14.75
15.75 4.25 15.25
15.75 4.25 15.75
14.25 5.25 15.25
14.75 5.25 15.25
14.75 5.75 15.25
14.25 5.25 15.75
14.75 5.25 15.75
14.75 5.75 15.75
15.25 5.25 15.25
15.25 5.75 15.25
15.75 5.75 15.25
15.25 5.25 15.75
15.25 5.75 15.75
15.75 5.75 15.75
16.25 4.25 0.75
16.25 4.75 0.75
16.75 4.75 0.75
16.25 5.25 0.75
16.25 5.75 0.75
16.25 4.25 1.25
16.25 4.75 1.25
16.75 4.75 1.25
16.25 4.25 1.75
16.25 4.75 1.75
16.75 4.75 1.75
16.25 5.25 1.25
16.75 5.25 1.25
16.25 5.75 1.25
16.25 5.25 1.75
16.75 5.25 1.75
16.25 5.75 1.75
16.25 4.25 2.25
16.25 4.75 2.25
16.75 4.75 2.25
16.25 4.25 2.75
16.25 4.75 2.75
16.75 4.75 2.75
16.25 5.25 2.25
16.75 5.25 2.25
16.25 5.75 2.25
16.25 5.25 2.75
16.75 5.25 2.75
16.25 5.75 2.75
16.25 4.25 3.25
16.25 4.75 3.25
16.75 4.75 3.25
16.25 4.25 3.75
16.25 4.75 3.75
16.75 4.75 3.75
16.25 5.25 3.25
16.75 5.25 3.25
16.25 5.75 3.25
16.25 5.25 3.75
16.75 5.25 3.75
16.25 5.75 3.75
16.25 4.25 4.25
16.25 4.75 4.25
16.75 4.75 4.25
16.25 4.25 4.75
16.25 4.75 4.75
16.75 4.75 4.75
16.25 5.25 4.25
16.75 5.25 4.25
16.25 5.75 4.25
16.25 5.25 4.75
16.75 5.25 4.75
16.25 5.75 4.75
16.25 4.25 5.25
16.25 4.75 5.25
16.75 4.75 5.25
16.25 4.25 5.75
16.25 4.75 5.75
16.75 4.75 5.75
16.25 5.25 5.25
16.75 5.25 5.25
16.25 5.75 5.25
16.25 5.25 5.75
16.75 5.25 5.75
16.25 5.75 5.75
16.25 4.25 6.25
16.25 4.75 6.25
16.75 4.75 6.25
16.25 4.25 6.75
16.25 4.75 6.75
16.75 4.75 6.75
16.25 5.25 6.25
16.75 5.25 6.25
16.25 5.75 6.25
16.25 5.25 6.75
16.75 5.25 6.75
16.25 5.75 6.75
16.25 4.25 7.25
16.25 4.75 7.25
16.75 4.75 7.25
16.25 4.25 7.75
16.25 4.75 7.75
16.75 4.75 7.75
16.25 5.25 7.25
16.75 5.25 7.25
16.25 5.75 7.25
16.25 5.25 7.75
16.75 5.25 7.75
16.25 5.75 7.75
16.25 4.25 8.25
16.25 4.75 8.25
16.75 4.75 8.25
16.25 4.25 8.75
16.25 4.75 8.75
16.75 4.75 8.75
16.25 5.25 8.25
16.75 5.25 8.25
16.25 5.75 8.25
16.25 5.25 8.75
16.75 5.25 8.75
16.25 5.75 8.75
16.25 4.25 9.25
16.25 4.75 9.25
16.75 4.75 9.25
16.25 4.25 9.75
16.25 4.75 9.75
16.75 4.75 9.75
16.25 5.25 9.25
16.75 5.25 9.25
16.25 5.75 9.25
16.25 5.25 9.75
16.75 5.25 9.75
16.25 5.75 9.75
16.25 4.25 10.25
16.25 4.75 10.25
16.75 4.75 10.25
16.25 4.25 10.75
16.25 4.75 10.75
16.75 4.75 10.75
16.25 5.25 10.25
16.75 5.25 10.25
16.25 5.75 10.25
16.25 5.25 10.75
16.75 5.25 10.75
16.25 5.75 10.75
16.25 4.25 11.25
16.25 4.75 11.25
16.75 4.75 11.25
16.25 4.25 11.75
16.25 4.75 11.75
16.75 4.75 11.75
16.25 5.25 11.25
16.75 5.25 11.25
16.25 5.75 11.25
16.25 5.25 11.75
16.75 5.25 11.75
16.25 5.75 11.75
16.25 4.25 12.25
16.25 4.75 12.25
16.75 4.75 12.25
16.25 4.25 12.75
16.25 4.75 12.75
16.75 4.75 12.75
16.25 5.25 12.25
16.75 5.25 12.25
16.25 5.75 12.25
16.25 5.25 12.75
16.75 5.25 12.75
16.25 5.75 12.75
16.25 4.25 13.25
16.25 4.75 13.25
16.75 4.75 13.25
16.25 4.25 13.75
16.25 4.75 13.75
16.75 4.75 13.75
16.25 5.25 13.25
16.75 5.25 13.25
16.25 5.75 13.25
16.25 5.25 13.75
16.75 5.25 13.75
16.25 5.75 13.75
16.25 4.25 14.25
16.25 4.75 14.25
