# .PCD v0.7 - Point Cloud Data file format
VERSION 0.7
FIELDS x y z rgb
SIZE 4 4 4 4
TYPE F F F U
COUNT 1 1 1 1
WIDTH 1336
HEIGHT 1
VIEWPOINT 0 0 0 1 0 0 0
POINTS 1336
DATA ascii
9.4500008 -5.8500004 12.45 4294901760
8.25 -5.5500002 12.45 4294901760
8.5500002 -5.5500002 12.45 4294901760
8.8500004 -5.5500002 12.45 4294901760
9.1500006 -5.5500002 12.45 4294901760
9.4500008 -5.5500002 12.45 4294901760
9.1500006 -5.25 12.45 4294901760
9.1500006 -4.9500003 12.45 4294901760
9.4500008 -6.7500005 12.75 4294901760
8.8500004 -6.1500001 12.75 4294901760
8.5500002 -5.8500004 12.75 4294901760
9.1500006 -5.8500004 12.75 4294901760
9.4500008 -5.8500004 12.75 4294901760
8.5500002 -5.5500002 12.75 4294901760
9.1500006 -5.5500002 12.75 4294901760
9.4500008 -5.5500002 12.75 4294901760
9.4500008 -7.0500002 13.05 4294901760
8.5500002 -6.7500005 13.05 4294901760
7.3500004 -6.4500003 13.05 4294901760
7.6500001 -6.4500003 13.05 4294901760
7.9500003 -6.4500003 13.05 4294901760
8.25 -6.4500003 13.05 4294901760
8.5500002 -6.4500003 13.05 4294901760
8.8500004 -6.4500003 13.05 4294901760
9.1500006 -6.4500003 13.05 4294901760
9.4500008 -6.4500003 13.05 4294901760
7.3500004 -6.1500001 13.05 4294901760
7.9500003 -6.1500001 13.05 4294901760
8.25 -6.1500001 13.05 4294901760
8.5500002 -6.1500001 13.05 4294901760
8.8500004 -6.1500001 13.05 4294901760
9.1500006 -6.1500001 13.05 4294901760
9.4500008 -6.1500001 13.05 4294901760
7.3500004 -5.8500004 13.05 4294901760
7.3500004 -5.5500002 13.05 4294901760
7.3500004 -4.9500003 13.05 4294901760
7.6500001 -4.9500003 13.05 4294901760
7.3500004 -7.0500002 13.35 4294901760
7.6500001 -7.0500002 13.35 4294901760
8.25 -7.0500002 13.35 4294901760
8.5500002 -7.0500002 13.35 4294901760
9.1500006 -7.0500002 13.35 4294901760
9.4500008 -7.0500002 13.35 4294901760
7.3500004 -7.0500002 13.65 4294901760
7.6500001 -7.0500002 13.65 4294901760
7.9500003 -7.0500002 13.65 4294901760
8.25 -7.0500002 13.65 4294901760
8.5500002 -7.0500002 13.65 4294901760
8.8500004 -7.0500002 13.65 4294901760
8.5500002 -6.7500005 13.65 4294901760
8.8500004 -6.7500005 13.65 4294901760
9.1500006 -6.7500005 13.65 4294901760
9.4500008 -6.7500005 13.65 4294639616
7.3500004 -5.8500004 13.65 4294901760
7.6500001 -5.8500004 13.65 4294901760
7.3500004 -5.5500002 13.65 4294901760
7.6500001 -5.5500002 13.65 4294901760
7.3500004 -5.25 13.65 4294901760
7.6500001 -5.25 13.65 4294901760
7.3500004 -4.9500003 13.65 4294901760
7.6500001 -4.9500003 13.65 4294901760
8.25 -6.1500001 13.95 4294901760
8.5500002 -6.1500001 13.95 4294901760
8.25 -5.8500004 13.95 4294901760
8.8500004 -5.8500004 13.95 4294901760
9.1500006 -5.8500004 13.95 4294901760
9.4500008 -5.8500004 13.95 4294901760
8.25 -5.5500002 13.95 4294901760
9.4500008 -5.5500002 13.95 4294901760
8.25 -5.25 13.95 4294901760
8.5500002 -4.9500003 13.95 4294901760
9.4500008 -5.5500002 14.25 4294901760
9.4500008 -5.25 14.25 4294901760
9.1500006 -4.9500003 14.25 4294901760
9.4500008 -4.9500003 14.25 4294901760
7.3500004 0.45000002 7.3500004 4294901760
7.3500004 0.75 7.3500004 4294901760
7.3500004 1.0500001 7.3500004 4294901760
7.9500003 1.35 7.3500004 4294901760
7.9500003 1.6500001 7.3500004 4294901760
8.5500002 1.6500001 7.3500004 4294901760
8.25 1.95 7.3500004 4294901760
8.5500002 1.95 7.3500004 4294901760
8.25 2.25 7.3500004 4294901760
8.5500002 2.25 7.3500004 4294901760
7.3500004 1.6500001 7.6500001 4294901760
7.6500001 1.6500001 7.6500001 4294705152
7.9500003 1.6500001 7.6500001 4293722112
7.3500004 1.95 7.6500001 4294901760
7.6500001 1.95 7.6500001 4294901760
7.3500004 0.15000001 7.9500003 4294901760
7.3500004 1.95 7.9500003 4294901760
7.6500001 1.95 7.9500003 4294901760
7.3500004 0.15000001 8.25 4294901760
7.6500001 0.15000001 8.25 4294901760
7.3500004 1.6500001 8.25 4294901760
7.3500004 1.95 8.25 4294901760
7.6500001 1.95 8.25 4294901760
8.25 1.95 8.25 4294901760
7.3500004 2.25 8.25 4294639616
7.3500004 0.15000001 8.5500002 4294901760
7.3500004 0.45000002 8.5500002 4294639616
7.3500004 1.35 8.5500002 4294705152
7.3500004 1.6500001 8.5500002 4294770688
7.6500001 1.6500001 8.5500002 4294639616
7.3500004 1.95 8.5500002 4294901760
8.25 1.95 8.5500002 4294901760
8.5500002 1.95 8.5500002 4292411392
7.6500001 2.25 8.5500002 4294508544
8.25 2.25 8.5500002 4293066752
8.5500002 1.95 8.8500004 4294508544
8.5500002 2.25 8.8500004 4293263360
8.5500002 1.95 9.1500006 4294901760
8.5500002 1.95 9.4500008 4294901760
10.05 -2.25 7.3500004 4294901760
10.35 -2.25 7.3500004 4294901760
10.05 -1.95 7.3500004 4294901760
10.35 -1.95 7.3500004 4294901760
10.05 -1.6500001 7.3500004 4294901760
10.35 -0.45000005 7.3500004 4294901760
9.75 -0.1500001 7.3500004 4294901760
10.35 -0.1500001 7.3500004 4294901760
10.35 -2.25 7.6500001 4294901760
10.35 -1.95 7.6500001 4294901760
10.05 -1.6500001 7.6500001 4294901760
10.35 -1.6500001 7.6500001 4294901760
10.35 -1.35 7.6500001 4294901760
10.35 -1.0500001 7.6500001 4294901760
10.35 -0.75 7.6500001 4294901760
10.35 -0.45000005 7.6500001 4294901760
10.35 -0.1500001 7.6500001 4294901760
10.35 -2.25 7.9500003 4294901760
10.35 -1.95 7.9500003 4294901760
10.05 -1.6500001 7.9500003 4294901760
10.35 -1.35 7.9500003 4294901760
10.35 -1.0500001 7.9500003 4294901760
10.35 -0.75 7.9500003 4294901760
10.35 -0.45000005 7.9500003 4294901760
10.35 -2.25 8.25 4294901760
10.35 -1.95 8.25 4294901760
10.35 -1.35 8.25 4294901760
10.35 -1.0500001 8.25 4294901760
10.35 -0.75 8.25 4294901760
10.05 -2.25 8.5500002 4294901760
10.35 -2.25 8.5500002 4294901760
10.05 -1.95 8.5500002 4294901760
10.35 -1.95 8.5500002 4294901760
10.35 -1.35 8.5500002 4294901760
10.35 -1.0500001 8.5500002 4294901760
10.35 -0.75 8.5500002 4294901760
10.05 -2.25 8.8500004 4294901760
10.05 -1.95 8.8500004 4294901760
10.05 -1.6500001 8.8500004 4294901760
10.05 -1.35 8.8500004 4294901760
10.35 -1.35 8.8500004 4294901760
10.35 -1.0500001 8.8500004 4294901760
10.35 -0.75 8.8500004 4294901760
10.35 -0.45000005 8.8500004 4294901760
10.35 -0.1500001 8.8500004 4294901760
10.35 -2.25 9.1500006 4294901760
10.35 -1.95 9.1500006 4294901760
10.35 -1.6500001 9.1500006 4294901760
10.35 -1.35 9.1500006 4294901760
10.35 -1.0500001 9.1500006 4294901760
10.35 -0.75 9.1500006 4294901760
10.35 -0.45000005 9.1500006 4294901760
10.35 -0.1500001 9.1500006 4294901760
10.35 -2.25 9.4500008 4294901760
10.35 -1.95 9.4500008 4294901760
10.05 -1.6500001 9.4500008 4294901760
10.35 -1.6500001 9.4500008 4294901760
10.35 -1.35 9.4500008 4294901760
10.35 -1.0500001 9.4500008 4294901760
10.35 -0.75 9.4500008 4294901760
10.35 -0.45000005 9.4500008 4294901760
10.35 -0.1500001 9.4500008 4294901760
9.4500008 -2.25 21.75 4288282624
9.4500008 -1.95 21.75 4292935680
17.550001 -7.0500002 7.3500004 4294901760
17.85 -7.0500002 7.3500004 4294901760
18.150002 -7.0500002 7.3500004 4294901760
18.450001 -7.0500002 7.3500004 4294901760
18.750002 -7.0500002 7.3500004 4294901760
19.050001 -7.0500002 7.3500004 4294901760
16.950001 -6.7500005 7.3500004 4294901760
17.250002 -6.7500005 7.3500004 4294901760
17.550001 -6.4500003 7.3500004 4294901760
18.150002 -6.4500003 7.3500004 4294901760
17.550001 -6.4500003 7.6500001 4294901760
17.85 -7.0500002 7.9500003 4294901760
17.550001 -6.7500005 7.9500003 4294901760
17.550001 -6.4500003 7.9500003 4293394432
17.250002 -6.7500005 8.25 4294901760
17.550001 -6.7500005 8.25 4294901760
19.050001 -6.7500005 8.25 4294901760
17.250002 -6.4500003 8.25 4292870144
17.85 -7.0500002 8.5500002 4294901760
17.250002 -6.7500005 8.5500002 4294901760
17.550001 -6.7500005 8.5500002 4294901760
18.150002 -6.7500005 8.5500002 4294901760
18.450001 -6.7500005 8.5500002 4294901760
18.750002 -6.7500005 8.5500002 4294836224
19.050001 -6.7500005 8.5500002 4294901760
18.150002 -6.4500003 8.5500002 4294836224
19.050001 -6.4500003 8.5500002 4294901760
10.950001 4.9500003 3.1500001 4294901760
11.25 4.9500003 3.1500001 4294901760
11.55 4.9500003 3.1500001 4294901760
11.85 4.9500003 3.1500001 4294901760
9.75 4.9500003 3.75 4294836224
10.05 4.9500003 4.3500004 4294901760
9.75 4.9500003 4.6500001 4294901760
8.25 4.9500003 18.450001 4294901760
8.5500002 4.9500003 18.450001 4294901760
8.8500004 4.9500003 18.450001 4294901760
9.1500006 4.9500003 18.450001 4294901760
9.4500008 4.9500003 18.450001 4294901760
8.5500002 5.25 18.450001 4294901760
9.1500006 5.25 18.450001 4294901760
9.4500008 5.25 18.450001 4294901760
8.5500002 5.5500002 18.450001 4294901760
9.1500006 5.5500002 18.450001 4294901760
9.4500008 5.5500002 18.450001 4294901760
8.5500002 5.8500004 18.450001 4294901760
8.8500004 5.8500004 18.450001 4294901760
9.1500006 5.8500004 18.450001 4294901760
8.5500002 4.9500003 18.750002 4294901760
7.9500003 5.25 18.750002 4294901760
7.9500003 5.5500002 18.750002 4294901760
9.1500006 5.5500002 18.750002 4294901760
9.4500008 5.5500002 18.750002 4294901760
8.25 5.8500004 18.750002 4294901760
8.5500002 5.8500004 18.750002 4294901760
8.8500004 5.8500004 18.750002 4294901760
9.1500006 5.8500004 18.750002 4294901760
9.75 -7.3500004 13.35 4294901760
10.05 -7.3500004 13.35 4294901760
10.35 -7.3500004 13.35 4294901760
10.650001 -7.3500004 13.35 4294901760
10.950001 -7.3500004 13.35 4294901760
11.25 -7.3500004 13.35 4294901760
11.55 -7.3500004 13.35 4294901760
11.85 -7.3500004 13.35 4294901760
10.05 -4.9500003 14.55 4293525504
10.950001 7.3500004 6.75 4294901760
11.55 7.3500004 6.75 4294901760
11.85 7.3500004 6.75 4294901760
9.75 7.3500004 7.0500002 4294901760
10.05 7.3500004 7.0500002 4294901760
10.35 7.3500004 7.0500002 4294901760
10.650001 7.3500004 7.0500002 4294901760
10.950001 7.3500004 7.0500002 4294901760
11.25 7.3500004 7.0500002 4294901760
11.55 7.3500004 7.0500002 4294901760
11.85 7.3500004 7.0500002 4294901760
6.75 2.5500002 2.5500002 4294901760
7.0500002 2.5500002 2.5500002 4294901760
7.0500002 2.8500001 2.5500002 4294901760
6.75 4.3500004 2.5500002 4294901760
7.0500002 4.3500004 2.5500002 4294901760
6.75 4.6500001 2.5500002 4294901760
7.0500002 2.5500002 2.8500001 4294901760
7.0500002 4.3500004 2.8500001 4294901760
7.0500002 4.6500001 2.8500001 4294901760
6.4500003 2.5500002 3.1500001 4294901760
6.75 2.5500002 3.1500001 4294901760
7.0500002 2.5500002 3.1500001 4294901760
6.75 2.8500001 3.1500001 4294901760
7.0500002 2.8500001 3.1500001 4294901760
7.0500002 3.75 3.1500001 4294901760
7.0500002 4.0500002 3.1500001 4294901760
6.75 4.3500004 3.1500001 4294901760
7.0500002 4.3500004 3.1500001 4294901760
6.75 4.6500001 3.1500001 4294901760
6.4500003 2.5500002 3.4500003 4294901760
9.75 -2.25 16.950001 4293328896
10.05 -2.25 16.950001 4294901760
10.35 -2.25 16.950001 4294901760
11.55 -2.25 16.950001 4294901760
10.05 -1.95 16.950001 4294311936
11.55 -1.95 16.950001 4294901760
10.05 -1.6500001 16.950001 4294901760
10.35 -1.6500001 16.950001 4294901760
11.55 -1.6500001 16.950001 4294901760
10.05 -1.35 16.950001 4294574080
11.55 -1.35 16.950001 4294901760
10.35 -1.0500001 16.950001 4292935680
11.55 -1.0500001 16.950001 4294901760
11.55 -0.75 16.950001 4294901760
10.35 -0.45000005 16.950001 4293001216
11.55 -0.45000005 16.950001 4294901760
10.35 -0.1500001 16.950001 4294049792
11.55 -0.1500001 16.950001 4294901760
11.55 -2.25 17.250002 4294901760
11.55 -1.95 17.250002 4294901760
11.55 -1.6500001 17.250002 4294901760
11.55 -1.35 17.250002 4294901760
11.55 -1.0500001 17.250002 4294901760
11.55 -0.75 17.250002 4294901760
11.55 -0.45000005 17.250002 4294901760
11.55 -0.1500001 17.250002 4294901760
11.55 -2.25 17.550001 4294901760
11.55 -1.95 17.550001 4294901760
11.55 -1.6500001 17.550001 4294901760
11.55 -1.0500001 17.550001 4294901760
11.55 -0.75 17.550001 4294901760
11.55 -0.45000005 17.550001 4294901760
11.55 -0.1500001 17.550001 4294901760
9.75 -2.25 17.85 4294901760
10.650001 -2.25 17.85 4294901760
11.55 -2.25 17.85 4294901760
11.85 -2.25 17.85 4294901760
9.75 -1.95 17.85 4294901760
10.05 -1.95 17.85 4294901760
11.55 -1.95 17.85 4294901760
9.75 -1.6500001 17.85 4294901760
11.55 -1.6500001 17.85 4294901760
11.85 -1.6500001 17.85 4294901760
11.55 -1.35 17.85 4294901760
11.55 -1.0500001 17.85 4294901760
11.85 -1.0500001 17.85 4294901760
11.55 -0.75 17.85 4294901760
11.85 -0.75 17.85 4294901760
11.55 -0.45000005 17.85 4294901760
11.55 -0.1500001 17.85 4294901760
11.85 -0.1500001 17.85 4294901760
11.25 -2.25 18.150002 4294901760
11.25 -1.95 18.150002 4294901760
10.950001 -1.6500001 18.150002 4294901760
11.25 -1.6500001 18.150002 4294901760
11.55 -1.6500001 18.150002 4294901760
10.35 -1.35 18.150002 4294901760
10.650001 -1.35 18.150002 4294901760
11.55 -1.35 18.150002 4294901760
10.650001 -1.0500001 18.150002 4294901760
10.950001 -1.0500001 18.150002 4294901760
11.25 -1.0500001 18.150002 4294901760
11.55 -1.0500001 18.150002 4294901760
10.650001 -0.75 18.150002 4294901760
11.55 -0.75 18.150002 4294901760
11.85 -0.75 18.150002 4294901760
11.25 -0.45000005 18.150002 4294901760
11.55 -0.45000005 18.150002 4294901760
11.55 -0.1500001 18.150002 4294901760
9.75 -2.25 18.750002 4294901760
9.75 -1.95 18.750002 4294901760
9.75 -1.6500001 18.750002 4294836224
9.75 -1.35 18.750002 4294901760
9.75 -1.0500001 18.750002 4294901760
9.75 -0.75 18.750002 4294901760
9.75 -0.45000005 18.750002 4294901760
10.05 -0.45000005 18.750002 4294901760
9.75 -0.1500001 18.750002 4294901760
10.05 -0.1500001 18.750002 4294901760
10.35 -2.25 19.050001 4294770688
10.650001 -2.25 19.050001 4294901760
10.35 -1.95 19.050001 4294705152
10.650001 -1.95 19.050001 4294901760
10.35 -1.6500001 19.050001 4294770688
10.650001 -1.6500001 19.050001 4294901760
10.35 -1.35 19.050001 4294770688
10.650001 -1.35 19.050001 4294901760
10.35 -1.0500001 19.050001 4294901760
10.650001 -1.0500001 19.050001 4294901760
10.35 -0.75 19.050001 4294770688
10.650001 -0.75 19.050001 4294901760
10.35 -0.45000005 19.050001 4294901760
10.650001 -0.45000005 19.050001 4294901760
10.35 -0.1500001 19.050001 4294901760
10.650001 -0.1500001 19.050001 4294901760
7.0500002 -4.3500004 13.05 4294901760
7.0500002 -4.0500002 13.05 4294901760
7.0500002 -3.75 13.05 4294901760
6.75 -2.5500002 13.35 4294901760
7.0500002 -4.6500001 13.65 4294901760
7.0500002 -4.0500002 13.65 4294901760
10.950001 4.9500003 18.150002 4294901760
11.25 4.9500003 18.150002 4294901760
11.55 4.9500003 18.150002 4294901760
11.85 4.9500003 18.150002 4294901760
9.75 4.9500003 18.450001 4294901760
10.05 4.9500003 18.450001 4294901760
10.35 4.9500003 18.450001 4294901760
9.75 5.5500002 18.450001 4294901760
10.05 5.5500002 18.450001 4294901760
10.35 5.8500004 18.450001 4294901760
10.650001 5.8500004 18.450001 4294901760
10.950001 5.8500004 18.450001 4294901760
11.25 5.8500004 18.450001 4294901760
11.55 5.8500004 18.450001 4294901760
10.05 4.9500003 18.750002 4294901760
10.35 4.9500003 18.750002 4294901760
10.650001 4.9500003 18.750002 4294901760
10.950001 4.9500003 18.750002 4294901760
11.25 4.9500003 18.750002 4294901760
9.75 5.25 18.750002 4294901760
10.05 5.25 18.750002 4294901760
10.35 5.25 18.750002 4294901760
9.75 5.5500002 18.750002 4294901760
7.0500002 2.5500002 7.3500004 4294901760
7.0500002 2.8500001 7.3500004 4294901760
7.0500002 3.1500001 7.3500004 4294901760
7.0500002 3.4500003 7.3500004 4294901760
7.0500002 3.75 7.3500004 4294901760
7.0500002 4.0500002 7.3500004 4294901760
7.0500002 4.3500004 7.3500004 4294901760
7.0500002 4.6500001 7.3500004 4294901760
12.15 -7.0500002 7.3500004 4294901760
12.45 -7.0500002 7.3500004 4294901760
13.05 -7.0500002 7.3500004 4294901760
13.35 -7.0500002 7.3500004 4294901760
13.65 -7.0500002 7.3500004 4294901760
13.95 -7.0500002 7.3500004 4294901760
14.25 -7.0500002 7.3500004 4294901760
12.45 -6.7500005 7.3500004 4294901760
12.75 -6.7500005 7.3500004 4294901760
13.35 -6.7500005 7.3500004 4294901760
13.65 -6.7500005 7.3500004 4294901760
13.95 -6.7500005 7.3500004 4294901760
14.25 -6.7500005 7.3500004 4294901760
12.15 -6.4500003 7.3500004 4294901760
13.95 -5.8500004 7.3500004 4294901760
14.25 -5.8500004 7.3500004 4294836224
13.65 -5.5500002 7.3500004 4294901760
12.75 -5.25 7.3500004 4294901760
13.05 -5.25 7.3500004 4294901760
12.45 -7.0500002 7.6500001 4294901760
12.15 -6.7500005 7.6500001 4294901760
12.45 -6.7500005 7.6500001 4294901760
13.65 -6.7500005 7.6500001 4294901760
13.95 -6.7500005 7.6500001 4294901760
13.65 -6.7500005 7.9500003 4294901760
13.95 -6.7500005 7.9500003 4294901760
14.25 -6.7500005 7.9500003 4294901760
13.65 -6.4500003 7.9500003 4294901760
13.95 -6.4500003 7.9500003 4294377472
13.95 -5.8500004 7.9500003 4294901760
12.45 -7.0500002 8.25 4294901760
12.15 -6.7500005 8.25 4294901760
13.95 -6.7500005 8.25 4294901760
12.45 -6.4500003 8.25 4294705152
12.15 -7.0500002 8.5500002 4294901760
12.45 -7.0500002 8.5500002 4294901760
12.75 -7.0500002 8.5500002 4294901760
13.05 -7.0500002 8.5500002 4294901760
13.35 -7.0500002 8.5500002 4294901760
13.65 -7.0500002 8.5500002 4294901760
13.95 -7.0500002 8.5500002 4294901760
14.25 -7.0500002 8.5500002 4294901760
12.15 -6.7500005 8.5500002 4294901760
12.75 -6.7500005 8.5500002 4294901760
13.05 -6.7500005 8.5500002 4294901760
13.35 -6.7500005 8.5500002 4294901760
13.65 -6.7500005 8.5500002 4294901760
13.95 -6.7500005 8.5500002 4294901760
14.25 -6.7500005 8.5500002 4294901760
12.45 -6.4500003 8.5500002 4294901760
13.65 -6.4500003 8.5500002 4294901760
14.25 -6.1500001 9.1500006 4294901760
13.95 -5.8500004 9.1500006 4294901760
10.35 0.15000001 16.950001 4293656576
11.55 0.15000001 16.950001 4294901760
10.35 0.45000002 16.950001 4293001216
11.55 0.45000002 16.950001 4294901760
10.05 0.75 16.950001 4294901760
10.35 0.75 16.950001 4294901760
11.55 0.75 16.950001 4294901760
10.35 1.0500001 16.950001 4294901760
11.55 1.0500001 16.950001 4294901760
10.05 1.35 16.950001 4294901760
10.35 1.35 16.950001 4294901760
11.55 1.35 16.950001 4294901760
11.85 1.35 16.950001 4294901760
10.05 1.6500001 16.950001 4294639616
10.35 1.6500001 16.950001 4294508544
11.55 1.6500001 16.950001 4294901760
10.35 1.95 16.950001 4294901760
11.55 1.95 16.950001 4294901760
10.35 2.25 16.950001 4294901760
11.55 2.25 16.950001 4294901760
11.55 0.15000001 17.250002 4294901760
11.55 0.45000002 17.250002 4294901760
11.55 0.75 17.250002 4294901760
11.55 1.0500001 17.250002 4294901760
11.55 1.35 17.250002 4294901760
11.55 1.6500001 17.250002 4294901760
11.55 1.95 17.250002 4294901760
11.25 2.25 17.250002 4294901760
11.55 0.15000001 17.550001 4294901760
11.55 0.45000002 17.550001 4294901760
11.55 0.75 17.550001 4294901760
11.55 1.0500001 17.550001 4294901760
11.55 1.35 17.550001 4294901760
11.55 1.6500001 17.550001 4294901760
11.55 1.95 17.550001 4294901760
11.55 2.25 17.550001 4294901760
11.85 2.25 17.550001 4294901760
11.55 0.15000001 17.85 4294901760
11.85 0.15000001 17.85 4294901760
11.55 0.45000002 17.85 4294901760
11.85 0.45000002 17.85 4294901760
11.55 0.75 17.85 4294901760
11.85 0.75 17.85 4294901760
11.55 1.0500001 17.85 4294901760
11.85 1.0500001 17.85 4294901760
11.55 1.35 17.85 4294901760
11.85 1.35 17.85 4294901760
11.55 1.6500001 17.85 4294901760
11.85 1.6500001 17.85 4294901760
11.55 1.95 17.85 4294901760
11.55 2.25 17.85 4294901760
11.85 2.25 17.85 4294901760
9.75 0.15000001 18.150002 4294901760
11.25 0.15000001 18.150002 4294901760
11.55 0.15000001 18.150002 4294901760
9.75 0.45000002 18.150002 4294901760
10.950001 0.75 18.150002 4294901760
11.25 0.75 18.150002 4294901760
9.75 1.0500001 18.150002 4294901760
11.25 1.0500001 18.150002 4294901760
10.650001 1.35 18.150002 4294901760
10.950001 1.35 18.150002 4294901760
11.25 1.35 18.150002 4294901760
9.75 1.6500001 18.150002 4294901760
11.25 1.6500001 18.150002 4294901760
9.75 1.95 18.150002 4294901760
10.650001 1.95 18.150002 4294901760
11.25 1.95 18.150002 4294901760
11.55 2.25 18.150002 4294901760
9.75 0.15000001 18.750002 4294901760
10.05 0.15000001 18.750002 4294901760
9.75 0.45000002 18.750002 4294901760
9.75 0.75 18.750002 4294901760
9.75 1.0500001 18.750002 4294901760
9.75 1.35 18.750002 4294836224
9.75 1.6500001 18.750002 4294901760
9.75 1.95 18.750002 4294836224
9.75 2.25 18.750002 4294901760
10.650001 0.15000001 19.050001 4294901760
10.35 0.45000002 19.050001 4294901760
10.650001 0.45000002 19.050001 4294901760
10.35 0.75 19.050001 4294770688
10.650001 0.75 19.050001 4294901760
10.35 1.0500001 19.050001 4294901760
10.650001 1.0500001 19.050001 4294901760
10.35 1.35 19.050001 4294770688
10.650001 1.35 19.050001 4294901760
10.35 1.6500001 19.050001 4294770688
10.650001 1.6500001 19.050001 4294901760
10.35 1.95 19.050001 4294770688
10.650001 1.95 19.050001 4294901760
10.35 2.25 19.050001 4294770688
10.650001 2.25 19.050001 4294901760
10.35 2.8500001 12.15 4294901760
10.35 3.1500001 12.15 4294901760
10.35 3.4500003 12.15 4294901760
10.950001 3.75 12.15 4294901760
11.25 3.75 12.15 4294836224
11.55 3.75 12.15 4294836224
11.85 3.75 12.15 4294901760
10.35 2.5500002 12.45 4294901760
10.650001 2.5500002 12.45 4294901760
10.35 2.8500001 12.45 4294901760
10.650001 2.8500001 12.45 4294901760
10.35 3.1500001 12.45 4294901760
10.35 3.4500003 12.45 4294901760
10.650001 3.4500003 12.45 4294901760
10.950001 3.4500003 12.45 4294901760
11.25 3.4500003 12.45 4294901760
10.05 3.75 12.45 4294901760
10.35 3.75 12.45 4294901760
10.950001 3.75 12.45 4294901760
11.25 3.75 12.45 4294901760
11.55 3.75 12.45 4294901760
11.85 3.75 12.45 4294901760
9.75 4.0500002 12.45 4294901760
10.05 4.0500002 12.45 4294901760
10.950001 4.0500002 12.45 4294901760
11.25 4.0500002 12.45 4294901760
11.55 4.0500002 12.45 4294901760
11.85 4.0500002 12.45 4294901760
11.55 4.3500004 12.45 4294901760
11.55 4.6500001 12.45 4294901760
10.05 3.1500001 13.05 4294901760
9.75 3.4500003 13.05 4294901760
10.650001 3.75 13.05 4294901760
10.35 4.0500002 13.05 4294901760
10.05 4.3500004 13.05 4294901760
10.35 4.3500004 13.05 4294901760
11.25 4.3500004 13.05 4294901760
11.55 4.3500004 13.05 4294901760
9.75 4.6500001 13.05 4294901760
10.05 4.6500001 13.05 4294901760
10.950001 4.6500001 13.05 4294901760
11.25 4.6500001 13.05 4294901760
10.950001 4.6500001 14.25 4294508544
11.25 4.6500001 14.25 4294574080
11.55 4.6500001 14.25 4294705152
11.85 4.6500001 14.25 4294770688
15.450001 9.1500006 1.0500001 4289724416
14.85 9.1500006 1.35 4292542464
15.450001 9.1500006 1.35 4291035136
16.050001 9.1500006 1.35 4293197824
16.35 9.1500006 1.35 4294705152
16.650002 9.1500006 1.35 4294836224
15.150001 7.3500004 1.6500001 4294901760
14.55 7.9500003 1.6500001 4294901760
15.150001 7.9500003 1.6500001 4294901760
16.050001 7.9500003 1.6500001 4294901760
14.55 8.25 1.6500001 4294901760
14.85 8.25 1.6500001 4294901760
15.150001 8.25 1.6500001 4294901760
16.050001 8.25 1.6500001 4294901760
16.35 8.25 1.6500001 4294901760
16.650002 8.25 1.6500001 4294901760
14.55 8.5500002 1.6500001 4294901760
14.85 8.5500002 1.6500001 4294901760
15.750001 8.5500002 1.6500001 4294901760
16.35 8.5500002 1.6500001 4294901760
15.450001 8.8500004 1.6500001 4294770688
15.750001 8.8500004 1.6500001 4294901760
15.450001 9.1500006 1.6500001 4288544768
14.55 7.6500001 1.95 4294901760
14.55 7.9500003 1.95 4294901760
15.450001 7.9500003 1.95 4294901760
15.750001 7.9500003 1.95 4294901760
16.35 7.9500003 1.95 4294901760
14.55 8.25 1.95 4294901760
15.750001 8.25 1.95 4294901760
16.050001 8.25 1.95 4294901760
16.35 8.25 1.95 4294901760
16.35 8.5500002 1.95 4294901760
14.55 7.9500003 2.25 4294901760
15.750001 7.9500003 2.25 4294901760
16.050001 7.9500003 2.25 4294901760
16.35 7.9500003 2.25 4294901760
14.55 8.25 2.25 4294836224
14.85 8.25 2.25 4294836224
15.150001 8.25 2.25 4294836224
15.450001 8.25 2.25 4294901760
15.750001 8.25 2.25 4294901760
16.35 8.25 2.25 4294901760
16.650002 8.25 2.25 4294901760
8.25 -2.25 9.75 4294705152
8.25 -1.95 9.75 4294836224
8.5500002 -1.95 9.75 4294901760
8.8500004 -1.95 9.75 4291362816
8.25 -2.25 10.05 4294246400
8.5500002 -2.25 10.05 4294901760
8.25 -1.95 10.05 4294901760
8.5500002 -2.25 10.35 4294901760
8.25 -1.95 10.35 4294901760
8.25 -2.25 10.650001 4294901760
8.5500002 -2.25 10.650001 4294901760
8.5500002 -2.25 10.950001 4294901760
8.5500002 -2.25 11.25 4294901760
8.8500004 -2.25 11.25 4294901760
8.25 -2.25 11.55 4294901760
8.25 -1.95 11.55 4294901760
8.25 -1.6500001 11.55 4291756032
8.5500002 -1.6500001 11.55 4289396736
8.25 -2.25 11.85 4294836224
8.25 -1.95 11.85 4294901760
9.1500006 4.9500003 5.8500004 4294836224
9.4500008 4.9500003 5.8500004 4294770688
8.5500002 4.9500003 6.1500001 4294901760
8.8500004 4.9500003 6.1500001 4294901760
9.4500008 4.9500003 6.1500001 4294901760
8.5500002 5.25 6.1500001 4294901760
9.1500006 5.25 6.1500001 4294901760
9.4500008 5.25 6.1500001 4294901760
8.5500002 5.5500002 6.1500001 4294901760
8.8500004 5.5500002 6.1500001 4294901760
9.1500006 5.5500002 6.1500001 4294901760
8.25 5.8500004 6.1500001 4294836224
8.8500004 5.8500004 6.1500001 4294901760
9.1500006 5.8500004 6.1500001 4294901760
7.6500001 6.4500003 6.1500001 4290510848
7.6500001 6.75 6.1500001 4287758336
7.9500003 6.75 6.1500001 4294901760
7.6500001 7.0500002 6.1500001 4287102976
8.25 4.9500003 6.4500003 4294901760
8.5500002 4.9500003 6.4500003 4294901760
8.8500004 4.9500003 6.4500003 4294901760
8.25 5.25 6.4500003 4294901760
8.5500002 5.25 6.4500003 4294901760
7.9500003 5.5500002 6.4500003 4294901760
7.9500003 5.8500004 6.4500003 4294901760
9.1500006 5.8500004 6.4500003 4294901760
9.4500008 5.8500004 6.4500003 4294901760
7.3500004 6.1500001 6.4500003 4294901760
7.9500003 6.1500001 6.4500003 4294901760
8.25 6.1500001 6.4500003 4294901760
9.4500008 6.1500001 6.4500003 4294901760
7.3500004 6.4500003 6.4500003 4294901760
7.9500003 6.4500003 6.4500003 4294901760
8.25 6.4500003 6.4500003 4294901760
8.5500002 6.4500003 6.4500003 4294901760
7.6500001 6.75 6.4500003 4294901760
7.3500004 7.0500002 6.4500003 4294901760
7.9500003 4.9500003 6.75 4294901760
7.9500003 5.25 6.75 4294901760
7.6500001 5.5500002 6.75 4294901760
7.9500003 5.5500002 6.75 4294901760
7.3500004 5.8500004 6.75 4294901760
7.6500001 5.8500004 6.75 4294901760
7.6500001 6.75 6.75 4294901760
8.5500002 6.75 6.75 4294901760
8.8500004 6.75 6.75 4294901760
9.1500006 6.75 6.75 4294901760
9.4500008 6.75 6.75 4294901760
7.3500004 7.0500002 6.75 4294901760
7.6500001 7.0500002 6.75 4294901760
7.9500003 7.0500002 6.75 4294901760
8.25 7.0500002 6.75 4294901760
8.8500004 7.0500002 6.75 4294901760
9.1500006 7.0500002 6.75 4294901760
8.5500002 4.9500003 7.0500002 4294901760
9.75 0.15000001 2.5500002 4294901760
9.75 0.45000002 2.5500002 4294901760
9.75 1.35 2.5500002 4294901760
9.75 1.6500001 2.5500002 4294901760
9.75 1.95 2.5500002 4294901760
9.75 2.25 2.5500002 4294901760
9.75 0.15000001 2.8500001 4294901760
9.75 0.45000002 2.8500001 4294901760
9.75 1.35 2.8500001 4294901760
9.75 1.6500001 2.8500001 4294901760
9.75 1.95 2.8500001 4294901760
9.75 2.25 2.8500001 4294901760
9.75 0.15000001 3.1500001 4294901760
9.75 1.35 3.1500001 4294901760
9.75 2.25 3.1500001 4294901760
9.75 0.15000001 3.4500003 4294901760
9.75 0.45000002 3.4500003 4294901760
9.75 1.35 3.4500003 4294901760
9.75 1.6500001 3.4500003 4294901760
9.75 1.95 3.4500003 4294901760
9.75 2.25 3.4500003 4294901760
9.75 0.15000001 3.75 4294901760
9.75 0.45000002 3.75 4294901760
9.75 1.0500001 3.75 4294901760
9.75 1.35 3.75 4294901760
9.75 1.6500001 3.75 4294901760
9.75 1.95 3.75 4294901760
9.75 2.25 3.75 4294901760
9.75 0.15000001 4.0500002 4294901760
9.75 0.45000002 4.0500002 4294901760
9.75 1.0500001 4.0500002 4294901760
9.75 1.35 4.0500002 4294901760
9.75 1.6500001 4.0500002 4294901760
9.75 1.95 4.0500002 4294901760
9.75 2.25 4.0500002 4294901760
9.75 0.15000001 4.3500004 4294901760
9.75 0.45000002 4.3500004 4294901760
9.75 1.35 4.3500004 4294901760
9.75 1.6500001 4.3500004 4294901760
9.75 1.95 4.3500004 4294901760
9.75 2.25 4.3500004 4294901760
9.75 0.15000001 4.6500001 4294901760
9.75 0.45000002 4.6500001 4294901760
9.75 1.6500001 4.6500001 4294901760
9.75 1.95 4.6500001 4294901760
9.75 2.25 4.6500001 4294901760
8.8500004 0.15000001 18.150002 4294901760
9.1500006 0.15000001 18.150002 4294901760
9.4500008 0.15000001 18.150002 4294901760
8.8500004 0.45000002 18.150002 4294901760
9.1500006 0.45000002 18.150002 4294901760
9.4500008 0.45000002 18.150002 4294901760
8.8500004 0.75 18.150002 4294901760
9.1500006 0.75 18.150002 4294901760
9.4500008 0.75 18.150002 4294901760
9.1500006 1.0500001 18.150002 4294901760
9.4500008 1.0500001 18.150002 4294901760
9.1500006 1.35 18.150002 4294901760
9.4500008 1.35 18.150002 4294901760
9.1500006 1.6500001 18.150002 4294901760
9.4500008 1.6500001 18.150002 4294901760
9.1500006 1.95 18.150002 4294901760
9.4500008 1.95 18.150002 4294901760
9.1500006 2.25 18.150002 4294901760
9.4500008 2.25 18.150002 4294901760
8.25 0.15000001 18.450001 4294836224
8.5500002 0.15000001 18.450001 4294901760
8.25 0.45000002 18.450001 4294836224
8.25 0.75 18.450001 4294901760
8.5500002 1.0500001 18.450001 4294901760
8.25 1.35 18.450001 4294901760
8.5500002 1.35 18.450001 4294901760
8.5500002 1.6500001 18.450001 4294901760
8.25 1.95 18.450001 4294901760
8.5500002 1.95 18.450001 4294901760
8.25 2.25 18.450001 4294901760
8.5500002 2.25 18.450001 4294901760
9.4500008 1.0500001 18.750002 4294901760
9.4500008 1.6500001 18.750002 4294901760
9.4500008 1.95 18.750002 4294901760
9.4500008 2.25 18.750002 4294901760
13.95 -4.6500001 7.3500004 4294901760
12.75 -4.0500002 7.3500004 4294901760
13.05 -4.0500002 7.3500004 4294901760
14.25 -4.0500002 7.3500004 4294901760
12.45 -3.75 7.3500004 4294901760
12.75 -3.75 7.3500004 4294901760
13.05 -3.75 7.3500004 4294901760
13.35 -3.75 7.3500004 4294901760
13.65 -3.75 7.3500004 4294901760
14.25 -3.75 7.3500004 4294901760
12.45 -4.0500002 7.6500001 4294901760
12.75 -4.0500002 7.6500001 4294901760
12.15 -3.75 7.6500001 4294901760
12.75 -3.75 7.6500001 4294901760
13.05 -3.75 7.6500001 4294901760
13.35 -3.75 7.6500001 4294901760
13.65 -3.75 7.6500001 4294901760
13.95 -3.75 7.6500001 4294901760
14.25 -3.75 7.6500001 4294901760
12.45 -4.0500002 7.9500003 4294901760
12.75 -4.0500002 7.9500003 4294901760
12.15 -3.75 7.9500003 4294901760
12.75 -3.75 7.9500003 4294901760
13.05 -3.75 7.9500003 4294901760
13.35 -3.75 7.9500003 4294901760
13.65 -3.75 7.9500003 4294901760
13.95 -3.75 7.9500003 4294901760
14.25 -3.75 7.9500003 4294901760
12.45 -4.0500002 8.25 4294901760
12.75 -4.0500002 8.25 4294901760
12.15 -3.75 8.25 4294901760
12.45 -3.75 8.25 4294901760
12.75 -3.75 8.25 4294901760
13.05 -3.75 8.25 4294901760
13.35 -3.75 8.25 4294901760
13.65 -3.75 8.25 4294901760
13.95 -3.75 8.25 4294901760
14.25 -3.75 8.25 4294901760
12.45 -4.0500002 8.5500002 4294901760
12.15 -3.75 8.5500002 4294901760
12.45 -3.75 8.5500002 4294901760
12.75 -3.75 8.5500002 4294901760
13.05 -3.75 8.5500002 4294901760
13.35 -3.75 8.5500002 4294901760
13.65 -3.75 8.5500002 4294901760
13.95 -3.75 8.5500002 4294901760
14.25 -3.75 8.5500002 4294901760
12.15 -4.0500002 8.8500004 4294901760
12.45 -4.0500002 8.8500004 4294901760
12.75 -4.0500002 8.8500004 4294901760
13.05 -3.75 8.8500004 4294901760
13.35 -3.75 8.8500004 4294901760
13.65 -3.75 8.8500004 4294901760
13.95 -3.75 8.8500004 4294901760
14.25 -3.75 8.8500004 4294901760
12.15 -3.75 9.1500006 4294901760
12.45 -3.75 9.1500006 4294901760
12.75 -3.75 9.1500006 4294901760
13.05 -3.75 9.1500006 4294901760
13.35 -3.75 9.1500006 4294901760
13.65 -3.75 9.1500006 4294901760
13.95 -3.75 9.1500006 4294901760
14.25 -3.75 9.1500006 4294901760
12.15 -3.75 9.4500008 4294901760
12.45 -3.75 9.4500008 4294901760
12.75 -3.75 9.4500008 4294901760
13.05 -3.75 9.4500008 4294901760
13.35 -3.75 9.4500008 4294901760
13.65 -3.75 9.4500008 4294901760
13.95 -3.75 9.4500008 4294901760
14.25 -3.75 9.4500008 4294901760
9.75 -4.6500001 21.75 4294901760
10.950001 -4.6500001 21.75 4294901760
9.75 -4.3500004 21.75 4293197824
10.650001 -4.3500004 21.75 4293263360
10.950001 -4.3500004 21.75 4293656576
9.75 -3.4500003 21.75 4294901760
9.75 -3.1500001 21.75 4294901760
10.05 -3.1500001 21.75 4294901760
11.85 -3.1500001 21.75 4292280320
11.55 -2.8500001 21.75 4294901760
11.25 -2.5500002 21.75 4294901760
10.950001 -4.6500001 22.050001 4293656576
11.55 -4.6500001 22.050001 4292345856
11.85 -4.6500001 22.050001 4293656576
10.950001 -4.3500004 22.050001 4293787648
11.25 -4.3500004 22.050001 4293656576
11.55 -4.3500004 22.050001 4293853184
11.85 -4.3500004 22.050001 4293328896
11.85 -3.1500001 22.050001 4291362816
11.25 -2.8500001 22.050001 4294836224
11.55 -2.8500001 22.050001 4294836224
11.85 -2.8500001 22.050001 4294901760
10.950001 -2.5500002 22.050001 4294901760
11.25 -2.5500002 22.050001 4294901760
10.950001 -2.5500002 22.35 4294901760
11.25 -2.5500002 22.35 4294901760
10.950001 -2.8500001 22.65 4294836224
11.25 -2.8500001 22.65 4294836224
11.25 -2.5500002 22.65 4294901760
11.25 -2.8500001 22.950001 4294901760
11.25 -2.5500002 22.950001 4294901760
11.55 -2.5500002 23.25 4294901760
11.55 -2.8500001 23.550001 4294901760
11.55 -2.5500002 23.550001 4294901760
10.650001 -3.75 23.85 4294901760
11.55 -3.4500003 23.85 4294901760
10.950001 -3.1500001 23.85 4294901760
11.55 -3.1500001 23.85 4294901760
11.85 -3.1500001 23.85 4294901760
10.650001 -2.8500001 23.85 4294901760
10.950001 -2.8500001 23.85 4294901760
11.85 -2.8500001 23.85 4294901760
11.55 -2.5500002 23.85 4294901760
7.0500002 -7.0500002 13.35 4294901760
6.75 -5.25 13.35 4294901760
6.75 -4.9500003 13.35 4294901760
6.75 -6.4500003 13.65 4294901760
7.0500002 -5.25 13.65 4294901760
7.0500002 -4.9500003 13.65 4294901760
7.0500002 0.15000001 7.3500004 4294901760
7.0500002 0.45000002 7.3500004 4294901760
7.0500002 0.75 7.3500004 4294901760
7.0500002 1.0500001 7.3500004 4294901760
7.0500002 1.35 7.3500004 4294901760
7.0500002 1.6500001 7.3500004 4294901760
7.0500002 1.95 7.3500004 4294901760
7.0500002 2.25 7.3500004 4294901760
6.75 7.6500001 2.5500002 4294901760
7.0500002 7.6500001 2.5500002 4294901760
6.75 7.9500003 2.5500002 4294901760
6.75 8.25 2.5500002 4294901760
6.75 8.5500002 2.5500002 4294901760
6.75 7.6500001 2.8500001 4294901760
7.0500002 7.6500001 2.8500001 4294901760
6.75 7.9500003 2.8500001 4294901760
7.0500002 7.9500003 2.8500001 4294901760
6.75 8.25 2.8500001 4294901760
6.75 8.5500002 2.8500001 4294901760
6.75 7.3500004 3.1500001 4294901760
6.75 7.6500001 3.1500001 4294901760
6.75 7.9500003 3.1500001 4294901760
6.4500003 8.25 3.1500001 4294836224
6.75 8.25 3.1500001 4294901760
6.75 8.5500002 3.1500001 4294901760
6.75 7.6500001 3.4500003 4294901760
7.0500002 7.6500001 3.4500003 4294901760
6.75 7.9500003 3.4500003 4294901760
6.4500003 8.25 3.4500003 4294836224
6.75 8.25 3.4500003 4294901760
6.75 7.9500003 3.75 4294901760
7.0500002 7.9500003 3.75 4294901760
6.75 8.25 3.75 4294901760
6.75 8.5500002 3.75 4294705152
7.0500002 8.8500004 3.75 4294377472
7.3500004 -9.1500006 1.0500001 4294901760
7.6500001 -9.1500006 1.0500001 4294901760
7.9500003 -9.1500006 1.0500001 4294901760
8.25 -9.1500006 1.0500001 4294901760
8.5500002 -9.1500006 1.0500001 4294901760
8.8500004 -9.1500006 1.0500001 4294901760
9.1500006 -9.1500006 1.0500001 4294901760
9.4500008 -9.1500006 1.0500001 4294901760
7.3500004 -9.1500006 1.35 4294901760
7.6500001 -9.1500006 1.35 4294901760
7.9500003 -9.1500006 1.35 4294901760
8.25 -9.1500006 1.35 4294901760
8.5500002 -9.1500006 1.35 4294901760
8.8500004 -9.1500006 1.35 4294836224
9.1500006 -9.1500006 1.35 4294836224
9.4500008 -9.1500006 1.35 4294901760
7.3500004 -9.1500006 1.6500001 4294836224
9.4500008 -9.1500006 1.6500001 4294901760
7.3500004 -8.8500004 1.6500001 4294901760
7.6500001 -8.8500004 1.6500001 4294901760
7.9500003 -8.8500004 1.6500001 4294901760
8.25 -8.8500004 1.6500001 4294901760
8.8500004 -8.8500004 1.6500001 4294901760
9.1500006 -8.8500004 1.6500001 4294901760
9.4500008 -8.8500004 1.6500001 4294901760
7.9500003 -8.5500002 1.6500001 4294901760
8.25 -8.5500002 1.6500001 4294901760
8.5500002 -8.5500002 1.6500001 4294901760
8.8500004 -8.5500002 1.6500001 4294901760
9.1500006 -8.5500002 1.6500001 4294901760
9.4500008 -8.25 1.6500001 4294901760
9.4500008 -7.9500003 1.6500001 4294901760
7.3500004 -7.6500006 1.6500001 4294901760
8.5500002 -7.6500006 1.6500001 4294901760
7.9500003 -7.3500004 1.6500001 4294901760
8.5500002 -7.3500004 1.6500001 4294901760
8.8500004 -7.3500004 1.6500001 4294901760
7.3500004 -8.25 1.95 4294901760
7.3500004 -7.9500003 1.95 4294901760
8.8500004 -7.6500006 1.95 4294901760
7.3500004 -8.25 2.25 4294901760
7.6500001 -8.25 2.25 4294901760
7.9500003 -8.25 2.25 4294901760
8.25 -8.25 2.25 4294901760
8.5500002 -8.25 2.25 4294901760
8.8500004 -8.25 2.25 4294901760
9.1500006 -8.25 2.25 4294901760
9.4500008 -8.25 2.25 4294901760
7.6500001 -7.9500003 2.25 4294901760
8.5500002 -7.9500003 2.25 4294901760
7.3500004 -7.3500004 2.25 4294901760
7.0500002 4.6500001 6.4500003 4294901760
6.75 2.5500002 6.75 4294901760
7.0500002 2.5500002 6.75 4294901760
7.0500002 2.8500001 6.75 4294901760
7.0500002 3.1500001 6.75 4294901760
7.0500002 3.4500003 6.75 4294901760
7.0500002 3.75 6.75 4294901760
7.0500002 4.0500002 6.75 4294901760
7.0500002 4.3500004 6.75 4294901760
7.0500002 4.6500001 6.75 4294901760
6.75 2.8500001 7.0500002 4294836224
6.75 3.1500001 7.0500002 4294901760
6.75 3.75 7.0500002 4294901760
7.0500002 3.75 7.0500002 4294901760
6.75 4.0500002 7.0500002 4294901760
6.75 4.3500004 7.0500002 4294901760
6.75 4.6500001 7.0500002 4294901760
9.75 -2.25 21.75 4291035136
11.25 -2.25 21.75 4294901760
11.55 -2.25 21.75 4294901760
9.75 -1.95 21.75 4293459968
11.55 -1.95 21.75 4294901760
11.55 -1.6500001 21.75 4294901760
11.25 -1.35 21.75 4294901760
11.55 -1.35 21.75 4294901760
11.25 -1.0500001 21.75 4294901760
11.55 -1.0500001 21.75 4294901760
11.55 -0.75 21.75 4294901760
11.55 -0.45000005 21.75 4294901760
11.55 -0.1500001 21.75 4294901760
11.25 -2.25 22.050001 4294901760
11.55 -2.25 22.050001 4294901760
11.25 -1.95 22.050001 4294901760
11.55 -1.95 22.050001 4294901760
11.25 -1.6500001 22.050001 4294901760
11.25 -1.35 22.050001 4294901760
11.55 -1.35 22.050001 4294901760
11.25 -1.0500001 22.050001 4294901760
11.55 -1.0500001 22.050001 4294901760
11.25 -0.75 22.050001 4294901760
11.55 -0.75 22.050001 4294901760
11.55 -0.45000005 22.050001 4294901760
11.55 -0.1500001 22.050001 4294901760
11.25 -2.25 22.35 4294901760
11.55 -2.25 22.35 4294901760
11.55 -1.95 22.35 4294901760
11.25 -1.6500001 22.35 4294901760
11.55 -1.6500001 22.35 4294901760
11.25 -1.35 22.35 4294901760
11.55 -1.35 22.35 4294901760
11.25 -1.0500001 22.35 4294901760
11.55 -1.0500001 22.35 4294901760
11.55 -0.75 22.35 4294901760
11.55 -0.45000005 22.35 4294901760
11.55 -0.1500001 22.35 4294901760
11.25 -2.25 22.65 4294901760
11.25 -1.95 22.65 4294901760
11.25 -1.6500001 22.65 4294901760
11.25 -1.35 22.65 4294901760
11.25 -1.0500001 22.65 4294901760
11.25 -0.75 22.65 4294901760
11.25 -0.45000005 22.65 4294901760
11.25 -0.1500001 22.65 4294901760
11.25 -2.25 22.950001 4294901760
11.25 -1.95 22.950001 4294901760
11.25 -1.6500001 22.950001 4294901760
11.25 -1.35 22.950001 4294901760
11.25 -1.0500001 22.950001 4294901760
11.25 -0.75 22.950001 4294901760
11.25 -0.45000005 22.950001 4294901760
11.25 -0.1500001 22.950001 4294901760
11.55 -2.25 23.25 4294901760
11.55 -1.95 23.25 4294901760
11.55 -1.6500001 23.25 4294901760
11.55 -1.35 23.25 4294901760
11.55 -1.0500001 23.25 4294901760
11.55 -0.75 23.25 4294901760
11.55 -0.45000005 23.25 4294901760
11.55 -0.1500001 23.25 4294901760
11.55 -2.25 23.550001 4294901760
11.55 -1.95 23.550001 4294901760
11.55 -1.6500001 23.550001 4294901760
11.55 -1.35 23.550001 4294901760
11.55 -1.0500001 23.550001 4294901760
11.55 -0.75 23.550001 4294901760
11.55 -0.45000005 23.550001 4294901760
11.55 -0.1500001 23.550001 4294901760
11.55 -2.25 23.85 4294901760
11.55 -1.95 23.85 4294901760
11.55 -1.6500001 23.85 4294901760
11.55 -1.35 23.85 4294901760
11.55 -1.0500001 23.85 4294901760
11.55 -0.75 23.85 4294901760
11.55 -0.45000005 23.85 4294901760
11.55 -0.1500001 23.85 4294901760
9.4500008 -4.0500002 24.450001 4294901760
9.4500008 -3.75 24.450001 4294901760
9.4500008 -3.4500003 24.450001 4294901760
9.4500008 -3.1500001 24.450001 4294901760
9.4500008 -2.8500001 24.450001 4294901760
9.4500008 -2.5500002 24.450001 4294901760
5.8500004 2.5500002 1.0500001 4294901760
6.1500001 2.5500002 1.0500001 4294901760
5.8500004 2.8500001 1.0500001 4294901760
6.1500001 2.8500001 1.0500001 4294901760
5.8500004 3.1500001 1.0500001 4294901760
6.1500001 3.1500001 1.0500001 4294901760
5.8500004 3.4500003 1.0500001 4294901760
6.1500001 3.4500003 1.0500001 4294901760
5.8500004 3.75 1.0500001 4294901760
6.1500001 3.75 1.0500001 4294901760
5.8500004 4.0500002 1.0500001 4294901760
6.1500001 4.0500002 1.0500001 4294901760
5.8500004 4.3500004 1.0500001 4294901760
6.1500001 4.3500004 1.0500001 4294901760
5.8500004 4.6500001 1.0500001 4294901760
6.1500001 4.6500001 1.0500001 4294901760
5.8500004 2.5500002 1.35 4294901760
6.1500001 2.5500002 1.35 4294901760
5.8500004 2.8500001 1.35 4294901760
6.1500001 2.8500001 1.35 4294901760
6.1500001 3.1500001 1.35 4294901760
5.8500004 3.4500003 1.35 4294901760
6.1500001 3.4500003 1.35 4294901760
6.1500001 3.75 1.35 4294901760
5.8500004 4.0500002 1.35 4294901760
6.1500001 4.0500002 1.35 4294901760
5.8500004 4.3500004 1.35 4294901760
6.1500001 4.3500004 1.35 4294901760
5.8500004 4.6500001 1.35 4294901760
6.1500001 4.6500001 1.35 4294901760
6.1500001 2.5500002 1.6500001 4294901760
6.4500003 2.8500001 1.6500001 4294901760
6.1500001 3.1500001 1.6500001 4294901760
6.4500003 3.1500001 1.6500001 4294901760
6.1500001 3.4500003 1.6500001 4294901760
6.4500003 3.4500003 1.6500001 4294901760
6.4500003 3.75 1.6500001 4294901760
6.4500003 4.0500002 1.6500001 4294901760
6.1500001 4.3500004 1.6500001 4294901760
6.4500003 4.3500004 1.6500001 4294901760
6.1500001 4.6500001 1.6500001 4294901760
6.4500003 4.6500001 1.6500001 4294901760
6.75 4.3500004 1.95 4294901760
7.0500002 4.3500004 1.95 4294901760
7.0500002 4.6500001 1.95 4294901760
6.75 2.5500002 2.25 4294901760
7.0500002 2.5500002 2.25 4294901760
6.75 2.8500001 2.25 4294901760
6.75 3.1500001 2.25 4294901760
6.75 3.4500003 2.25 4294901760
7.0500002 3.4500003 2.25 4294901760
6.75 3.75 2.25 4294901760
7.0500002 3.75 2.25 4294901760
6.75 4.0500002 2.25 4294901760
6.75 4.3500004 2.25 4294901760
6.75 4.6500001 2.25 4294901760
9.75 -2.25 14.55 4294901760
9.75 -1.95 14.55 4294901760
9.75 -1.6500001 14.55 4294901760
9.75 -1.35 14.55 4294901760
9.75 -1.0500001 14.55 4294901760
9.75 -0.75 14.55 4294901760
9.75 -0.45000005 14.55 4294901760
9.75 -0.1500001 14.55 4294901760
10.35 -2.25 14.85 4294901760
10.35 -1.95 14.85 4294901760
10.35 -1.35 14.85 4294901760
10.05 -1.0500001 14.85 4294901760
10.35 -1.0500001 14.85 4294901760
10.35 -0.75 14.85 4294901760
10.05 -0.45000005 14.85 4294901760
10.35 -0.45000005 14.85 4294901760
10.05 -0.1500001 14.85 4294901760
10.35 -0.1500001 14.85 4294901760
10.650001 -2.25 15.150001 4294901760
10.650001 -1.95 15.150001 4294901760
10.650001 -1.6500001 15.150001 4294901760
10.650001 -1.35 15.150001 4294901760
10.650001 -1.0500001 15.150001 4294901760
10.650001 -0.75 15.150001 4294901760
10.650001 -0.45000005 15.150001 4294901760
10.650001 -0.1500001 15.150001 4294901760
10.35 -2.25 15.450001 4294901760
10.650001 -2.25 15.450001 4294901760
10.35 -1.6500001 15.450001 4294901760
10.35 -1.35 15.450001 4294901760
10.650001 -1.0500001 15.450001 4294901760
10.650001 -0.75 15.450001 4294901760
10.650001 -0.45000005 15.450001 4294901760
10.950001 -0.45000005 15.450001 4294901760
10.650001 -0.1500001 15.450001 4294901760
9.75 -2.25 15.750001 4294901760
10.05 -2.25 15.750001 4294901760
9.75 -1.95 15.750001 4294901760
10.05 -1.95 15.750001 4294901760
10.35 -1.95 15.750001 4294901760
9.75 -1.6500001 15.750001 4294901760
10.35 -1.6500001 15.750001 4294901760
9.75 -1.35 15.750001 4294901760
10.35 -1.35 15.750001 4294901760
10.35 -0.75 15.750001 4294901760
10.650001 -0.75 15.750001 4294901760
10.05 -2.25 16.050001 4294901760
11.55 -2.25 16.050001 4294901760
11.85 -2.25 16.050001 4294901760
9.75 -1.95 16.050001 4294901760
10.05 -1.95 16.050001 4294901760
10.650001 -1.95 16.050001 4294901760
11.55 -1.95 16.050001 4294901760
11.85 -1.95 16.050001 4294901760
10.05 -1.6500001 16.050001 4294901760
11.55 -1.6500001 16.050001 4294901760
10.05 -1.35 16.050001 4294901760
10.35 -1.35 16.050001 4294901760
11.25 -1.35 16.050001 4294901760
11.55 -1.35 16.050001 4294901760
10.05 -1.0500001 16.050001 4294901760
11.55 -1.0500001 16.050001 4294901760
10.05 -0.75 16.050001 4294836224
11.55 -0.75 16.050001 4294901760
10.05 -0.45000005 16.050001 4294901760
11.55 -0.45000005 16.050001 4294901760
11.85 -0.45000005 16.050001 4294901760
10.05 -0.1500001 16.050001 4294901760
11.55 -0.1500001 16.050001 4294901760
9.75 -2.25 16.35 4294901760
10.05 -2.25 16.35 4294901760
11.55 -2.25 16.35 4294901760
9.75 -1.95 16.35 4294901760
11.55 -1.95 16.35 4294901760
11.55 -1.6500001 16.35 4294901760
10.05 -1.35 16.35 4294705152
11.55 -1.35 16.35 4294901760
11.55 -1.0500001 16.35 4294901760
11.55 -0.75 16.35 4294901760
11.55 -0.45000005 16.35 4294901760
10.05 -0.1500001 16.35 4294836224
11.55 -0.1500001 16.35 4294901760
11.85 -0.1500001 16.35 4294901760
9.75 -2.25 16.650002 4294901760
10.05 -2.25 16.650002 4294901760
11.55 -2.25 16.650002 4294901760
11.55 -1.95 16.650002 4294901760
10.35 -1.6500001 16.650002 4294705152
11.55 -1.6500001 16.650002 4294901760
10.35 -1.35 16.650002 4294836224
11.55 -1.35 16.650002 4294901760
11.55 -1.0500001 16.650002 4294901760
10.35 -0.75 16.650002 4294836224
11.55 -0.75 16.650002 4294901760
10.35 -0.45000005 16.650002 4294508544
11.55 -0.45000005 16.650002 4294901760
10.05 -0.1500001 16.650002 4294836224
10.35 -0.1500001 16.650002 4294836224
11.55 -0.1500001 16.650002 4294901760
11.85 -0.1500001 16.650002 4294901760
5.8500004 -4.6500001 1.0500001 4294901760
6.1500001 -4.6500001 1.0500001 4294901760
5.8500004 -4.3500004 1.0500001 4294901760
6.1500001 -4.3500004 1.0500001 4294901760
5.8500004 -4.0500002 1.0500001 4294901760
6.1500001 -4.0500002 1.0500001 4294901760
5.8500004 -3.75 1.0500001 4294901760
6.1500001 -3.75 1.0500001 4294901760
5.8500004 -3.4500003 1.0500001 4294901760
6.1500001 -3.4500003 1.0500001 4294901760
5.8500004 -3.1500001 1.0500001 4294901760
6.1500001 -3.1500001 1.0500001 4294901760
5.8500004 -2.8500001 1.0500001 4294901760
6.1500001 -2.8500001 1.0500001 4294901760
5.8500004 -2.5500002 1.0500001 4294901760
6.1500001 -2.5500002 1.0500001 4294901760
5.8500004 -4.6500001 1.35 4294901760
6.1500001 -4.6500001 1.35 4294901760
5.8500004 -4.3500004 1.35 4294901760
6.1500001 -4.3500004 1.35 4294901760
5.8500004 -4.0500002 1.35 4294901760
6.1500001 -4.0500002 1.35 4294901760
5.8500004 -3.75 1.35 4294901760
6.1500001 -3.75 1.35 4294901760
6.1500001 -3.4500003 1.35 4294901760
6.1500001 -3.1500001 1.35 4294901760
5.8500004 -2.8500001 1.35 4294901760
6.1500001 -2.8500001 1.35 4294901760
5.8500004 -2.5500002 1.35 4294901760
6.1500001 -2.5500002 1.35 4294901760
6.1500001 -4.6500001 1.6500001 4294901760
6.1500001 -4.3500004 1.6500001 4294705152
6.1500001 -4.0500002 1.6500001 4294901760
6.4500003 -4.0500002 1.6500001 4294901760
6.75 -4.0500002 1.6500001 4294901760
6.1500001 -3.75 1.6500001 4294901760
6.1500001 -3.4500003 1.6500001 4294901760
6.1500001 -3.1500001 1.6500001 4294901760
6.1500001 -2.8500001 1.6500001 4294639616
6.1500001 -2.5500002 1.6500001 4294901760
7.0500002 -4.6500001 1.95 4294901760
7.0500002 -2.8500001 1.95 4294901760
6.75 -4.6500001 2.25 4294901760
7.0500002 -4.3500004 2.25 4294901760
6.75 -4.0500002 2.25 4294901760
7.0500002 -3.75 2.25 4294901760
7.0500002 -3.4500003 2.25 4294901760
7.0500002 -3.1500001 2.25 4294901760
6.75 -2.8500001 2.25 4294901760
26.550001 -2.25 1.0500001 4294901760
26.850002 -2.25 1.0500001 4294901760
27.150002 -2.25 1.0500001 4294901760
26.550001 -1.95 1.0500001 4294901760
27.150002 -1.95 1.0500001 4294901760
26.550001 -1.6500001 1.0500001 4294901760
26.850002 -1.35 1.0500001 4294901760
26.550001 -2.25 1.35 4294901760
26.850002 -2.25 1.35 4294901760
27.150002 -1.95 1.35 4294901760
26.550001 -1.6500001 1.35 4294901760
26.850002 -1.35 1.35 4294901760
26.550001 -2.25 1.6500001 4294901760
26.850002 -2.25 1.6500001 4294901760
27.150002 -1.95 1.6500001 4294901760
26.850002 -1.6500001 1.6500001 4294901760
27.150002 -1.6500001 1.6500001 4294901760
26.850002 -1.35 1.6500001 4294901760
27.150002 -1.35 1.6500001 4294901760
12.75 9.1500006 1.0500001 4294770688
14.25 9.1500006 1.0500001 4287037440
12.75 9.1500006 1.35 4293394432
13.65 9.1500006 1.35 4291297280
12.15 7.3500004 1.6500001 4294901760
12.45 7.3500004 1.6500001 4294901760
